NCOLS 215
NROWS 74
XLLCORNER 4809000
YLLCORNER 3538000
CELLSIZE 1000
NODATA_value -9999
82.12 67.06 67.77 81.51 67.61 77.57 73.50 73.40 73.87 79.14 65.45 78.46 80.31 70.41 82.76 74.32 83.99 79.04 78.84 68.76 78.99 81.02 74.45 81.73 84.82 70.80 80.18 80.70 81.67 73.59 72.16 80.14 80.98 71.38 79.46 69.16 78.39 75.61 73.38 73.20 65.88 77.59 79.06 71.60 72.42 83.68 81.85 78.81 76.88 73.82 74.91 67.40 69.77 82.46 71.58 79.28 74.64 81.72 79.96 77.30 68.57 82.32 81.60 80.18 76.02 66.70 66.78 65.99 70.35 84.02 78.51 79.60 66.74 66.75 65.74 65.05 80.44 70.16 79.35 65.56 81.04 67.60 80.74 82.93 79.58 70.62 66.79 83.16 75.50 84.86 81.20 71.66 84.09 84.15 79.57 84.58 78.69 83.56 79.46 68.12 69.21 66.67 77.81 79.48 81.13 78.18 79.50 73.57 80.51 69.56 71.95 76.52 81.64 77.04 83.39 75.24 72.55 73.69 83.69 78.39 81.85 71.10 70.48 78.20 68.61 83.29 82.35 82.47 74.86 82.41 77.16 65.85 70.09 67.40 77.39 71.02 68.68 79.99 79.30 79.64 84.56 79.17 72.33 67.83 69.76 78.82 75.23 73.59 76.66 70.33 75.94 75.68 70.84 73.48 67.97 63.77 70.59 67.36 64.65 63.84 61.44 69.94 64.06 67.86 65.39 66.81 57.85 57.80 59.33 57.60 57.31 61.44 55.32 56.27 55.73 57.90 56.88 53.54 50.99 49.20 50.49 51.10 47.44 55.50 48.06 53.48 50.50 44.85 47.99 44.10 39.81 39.19 41.58 38.23 39.13 37.64 31.50 29.29 27.17 31.11 25.81 26.46 21.16 21.62 17.88 20.56 15.76 14.46 12.40 9.12 5.95 -9999 -9999 -9999 -9999
71.76 82.64 84.62 76.21 82.81 73.96 79.00 75.35 65.90 76.02 78.58 66.48 84.72 84.11 65.86 68.70 80.95 82.48 69.24 65.31 77.69 82.66 75.51 70.39 81.73 67.85 83.50 76.13 70.12 78.82 84.27 78.79 75.63 81.21 76.80 77.57 82.35 79.27 82.80 81.44 80.23 76.53 75.76 81.49 67.08 79.37 80.06 66.86 75.33 76.62 74.50 71.20 81.28 76.39 72.13 71.00 68.75 66.92 71.75 70.76 67.78 65.91 70.00 76.48 84.16 79.66 68.84 74.91 81.27 71.13 71.84 84.35 69.91 81.25 80.10 74.48 72.36 75.47 81.50 80.17 71.68 69.49 80.79 83.39 67.81 83.83 71.32 75.86 78.50 83.14 68.80 77.75 77.39 75.02 77.53 66.55 81.40 71.61 77.78 74.86 78.80 67.74 68.59 68.87 69.65 84.97 73.80 79.36 65.57 65.59 82.18 75.44 74.43 68.69 84.09 76.53 71.37 84.18 79.11 78.00 76.10 79.63 70.45 76.07 84.46 81.27 80.27 70.75 78.82 68.46 68.24 77.65 79.01 77.54 83.87 70.52 68.39 74.66 81.68 69.99 84.81 82.77 80.32 68.89 81.02 66.17 70.84 71.03 72.50 67.93 73.69 72.12 66.05 66.14 68.36 63.89 64.78 68.46 70.35 66.37 70.55 61.46 60.94 65.18 63.43 63.85 59.92 61.85 57.83 61.46 64.20 60.89 63.14 57.61 58.30 57.64 51.71 57.11 52.14 52.51 51.42 57.55 56.77 47.19 50.08 51.37 46.54 45.22 47.26 41.62 45.00 40.11 38.73 37.82 38.70 37.00 34.88 30.89 33.03 26.79 26.89 24.20 27.05 22.72 18.14 21.01 17.81 13.65 11.71 8.93 9.29 6.74 -9999 -9999 -9999
74.06 69.56 70.55 83.18 75.59 70.21 81.24 71.97 66.67 66.68 69.72 72.44 82.92 78.19 82.81 83.68 75.80 72.88 77.24 73.31 77.94 82.49 74.97 82.27 72.00 65.79 80.46 65.51 70.08 72.16 71.33 66.58 79.91 83.64 76.83 81.10 69.36 72.00 73.93 69.74 68.76 82.73 82.42 72.71 69.83 67.11 70.33 80.75 72.51 84.92 81.59 75.41 69.38 75.86 67.67 73.92 84.60 68.30 69.27 65.37 74.95 65.99 73.72 79.01 74.94 67.23 74.97 69.60 82.42 84.77 83.75 81.33 80.24 71.94 77.03 79.91 74.32 76.45 71.22 83.09 72.34 77.96 79.14 78.33 73.39 76.15 74.64 77.59 71.01 83.00 70.87 77.30 72.32 74.83 82.84 72.52 69.29 80.05 79.77 68.09 82.23 65.18 78.78 70.15 82.11 70.58 77.10 83.18 76.81 82.53 74.55 66.91 72.73 73.17 76.20 79.32 67.61 83.84 74.43 81.46 67.35 79.85 83.67 81.23 77.97 71.82 80.29 77.48 82.62 78.36 84.35 83.99 72.01 68.13 83.22 81.00 81.50 83.07 74.81 81.91 70.07 76.75 76.73 72.30 77.29 69.02 82.42 69.12 70.17 76.23 69.13 71.56 74.58 70.21 70.56 70.82 66.14 68.79 63.86 66.86 64.65 61.74 59.72 60.19 63.21 67.55 60.22 60.46 62.19 61.20 64.20 62.90 62.55 61.54 56.48 53.37 60.31 54.54 57.50 53.96 53.84 50.66 55.71 50.85 50.76 51.17 47.86 50.37 47.07 43.88 44.49 43.00 37.75 37.13 35.50 35.29 34.41 29.51 31.58 26.05 29.81 27.51 22.07 24.57 23.60 21.43 18.90 16.68 14.12 9.46 6.73 5.47 -9999 -9999 -9999
78.00 69.44 81.81 66.05 78.28 84.94 68.06 76.69 83.23 82.96 73.11 69.83 73.23 74.03 66.34 76.73 66.66 75.77 69.71 80.83 84.50 71.82 79.86 74.74 70.37 83.49 73.37 68.97 82.30 71.45 75.50 68.66 68.40 65.17 81.36 74.31 83.05 84.08 77.34 71.55 71.15 73.43 65.31 65.67 74.45 83.05 82.71 74.51 79.70 76.91 75.02 72.79 67.53 75.89 72.67 79.26 81.35 69.41 74.68 72.85 71.27 73.22 81.41 65.68 67.24 81.41 69.17 79.61 72.95 81.50 75.55 66.60 78.97 81.11 83.44 79.06 69.06 66.77 67.54 68.59 81.47 71.81 82.14 81.55 69.19 71.69 67.59 83.98 69.35 69.20 84.58 77.46 80.06 77.26 69.90 72.28 77.95 66.46 79.03 81.56 67.87 78.21 83.27 78.11 79.05 84.85 70.25 71.37 71.07 70.89 79.34 65.15 82.82 80.43 81.05 79.86 73.33 80.71 67.48 78.31 73.61 78.25 80.99 79.55 76.33 80.95 69.50 69.68 77.16 74.77 66.63 69.52 75.11 83.74 80.73 74.37 65.15 70.24 66.74 79.21 81.77 70.87 84.37 76.28 68.24 67.43 80.73 76.30 75.48 76.71 77.00 70.41 72.00 68.97 71.03 69.62 72.33 70.54 67.67 61.63 70.32 63.45 67.99 63.48 65.21 62.26 59.83 58.31 63.03 59.33 60.99 56.81 60.42 62.22 60.39 53.29 55.81 58.97 52.36 50.67 51.85 57.82 48.76 53.57 46.42 50.35 50.37 47.01 43.94 42.55 42.25 39.68 37.59 40.23 38.74 35.07 35.91 31.42 31.17 31.66 27.31 28.20 26.13 20.10 20.77 18.48 18.71 15.54 11.49 9.52 9.24 4.00 -9999 -9999 -9999
72.41 65.19 79.03 70.93 66.73 67.42 75.70 76.70 67.66 75.72 72.18 70.13 69.84 83.95 69.87 83.40 82.60 78.38 65.77 79.47 83.92 70.17 67.77 83.18 72.80 81.12 83.18 71.07 82.04 79.07 82.65 83.38 69.98 67.25 74.28 78.74 72.24 77.56 73.14 82.44 67.58 70.67 79.23 76.40 76.69 69.56 81.54 82.04 66.62 72.57 65.83 80.02 79.46 77.35 68.71 74.40 75.07 75.58 76.22 77.06 66.52 65.26 79.83 68.59 73.52 77.01 70.93 76.51 76.90 82.21 77.21 83.59 72.63 70.32 70.00 67.80 79.21 67.36 68.19 72.57 84.17 78.30 73.29 73.72 79.58 74.41 66.54 80.55 68.74 80.26 77.77 80.88 78.89 75.03 69.78 81.51 69.22 66.81 79.42 78.93 82.63 75.55 81.60 79.91 69.53 65.71 65.00 71.59 79.28 68.65 65.58 75.87 69.38 71.47 78.30 70.64 80.60 68.79 68.50 69.78 83.48 77.92 74.29 71.30 65.65 77.84 82.73 69.49 82.67 75.52 76.37 78.76 84.46 79.64 70.92 67.46 71.06 69.03 65.72 78.49 72.42 73.48 71.38 74.87 70.62 71.60 70.69 70.44 73.86 71.25 74.96 75.79 70.31 71.51 73.27 64.39 68.46 71.87 69.52 63.07 67.49 62.30 61.33 65.80 66.99 67.36 59.18 56.89 64.41 58.40 55.55 61.38 57.37 53.24 57.60 58.13 60.90 55.84 56.22 57.37 56.28 55.13 53.29 52.80 53.46 51.95 48.38 50.39 45.38 44.29 44.45 42.79 38.24 38.41 36.21 38.21 32.33 32.86 33.96 28.43 26.23 28.16 24.88 24.28 24.00 22.07 18.13 16.25 12.31 10.44 8.28 4.61 -9999 -9999 -9999
77.03 74.26 69.59 79.12 72.95 81.42 77.73 70.57 65.98 67.83 79.74 67.39 80.13 77.29 81.87 79.70 65.31 83.62 84.75 84.42 73.81 67.01 65.64 70.80 65.71 72.97 77.20 78.75 83.06 80.37 81.47 65.63 67.06 69.56 75.61 72.49 77.09 76.07 69.70 78.38 79.64 71.90 71.87 66.19 74.45 77.48 67.41 80.29 72.26 80.35 84.60 82.73 79.26 68.65 83.24 83.40 83.96 72.08 69.99 69.33 70.92 76.40 77.09 73.34 84.22 83.17 75.93 84.60 78.59 74.80 70.70 67.43 78.11 79.81 84.12 71.59 66.82 70.76 79.92 72.60 68.44 78.85 65.99 82.35 84.17 81.35 67.63 81.33 82.44 69.76 67.19 79.74 72.05 70.98 66.86 67.16 72.02 67.48 82.53 66.69 68.42 65.71 81.30 66.71 71.14 74.84 80.78 84.60 71.86 65.55 83.24 74.00 74.59 84.81 70.85 82.13 67.90 70.73 80.55 66.17 73.87 83.77 73.38 82.82 67.49 77.50 70.21 69.37 76.87 67.12 82.23 69.65 76.18 83.42 82.72 70.75 66.63 82.26 68.90 66.09 82.99 78.43 67.98 67.08 81.66 67.92 71.22 78.80 70.11 68.74 76.23 67.71 70.63 66.70 68.61 67.62 72.01 70.19 63.82 64.44 64.74 61.23 67.57 67.64 65.77 63.50 66.88 62.92 57.16 63.59 55.96 57.90 57.83 59.20 59.88 54.40 56.44 59.65 53.93 51.44 56.64 55.87 55.77 51.84 55.81 47.54 48.41 47.91 45.04 47.12 41.72 44.69 42.13 38.91 36.99 37.18 34.91 31.44 31.13 28.63 28.08 25.89 23.00 23.30 20.00 18.10 16.95 16.41 15.44 11.39 7.12 5.73 -9999 -9999 -9999
84.31 80.71 75.90 79.14 81.61 79.53 72.35 68.38 78.65 66.31 80.49 81.61 79.24 75.30 78.37 76.68 73.00 71.59 77.97 79.33 73.27 82.16 75.56 65.27 77.95 82.32 73.30 68.73 71.99 83.56 82.93 83.25 69.59 78.88 72.88 66.57 84.93 69.80 74.11 84.97 79.34 73.62 82.20 68.55 73.03 74.24 72.45 65.38 72.82 70.22 77.65 76.70 71.50 74.59 68.40 82.82 78.05 84.35 77.97 75.96 69.97 83.61 83.38 83.57 82.76 83.37 69.89 76.37 79.95 76.60 80.79 79.63 80.58 76.97 76.43 80.87 71.57 74.38 84.89 80.64 77.96 80.47 74.01 75.87 80.31 68.96 80.16 66.08 66.96 66.76 82.81 65.29 76.31 74.21 72.08 71.16 68.42 78.47 67.53 70.64 65.27 78.34 72.41 77.38 72.92 71.60 81.22 66.79 67.81 79.45 65.10 81.23 67.57 80.21 84.70 81.36 76.32 77.41 71.64 65.49 82.28 81.19 83.76 76.36 66.48 80.19 79.21 80.90 70.84 82.69 77.32 77.63 78.87 83.21 82.70 68.12 82.28 70.72 68.65 66.68 84.77 68.08 67.40 71.57 72.74 79.32 65.69 74.48 70.56 71.64 76.22 75.85 74.72 70.67 73.04 65.07 64.85 68.06 67.13 67.20 69.90 70.12 69.05 64.54 67.90 58.82 61.29 61.63 62.26 57.86 57.93 58.44 60.33 60.20 60.53 61.27 55.45 60.07 50.75 51.39 54.05 54.35 57.50 56.51 52.45 49.59 52.96 49.53 48.17 47.45 41.66 40.22 39.76 39.45 38.61 35.73 33.10 32.40 29.02 30.65 27.16 29.42 23.42 26.44 22.75 22.23 18.35 17.64 15.58 10.98 8.95 6.32 -9999 -9999 -9999
65.42 79.27 79.68 73.64 77.69 82.13 79.94 72.79 79.84 67.02 70.90 82.38 66.58 82.95 83.50 81.06 77.43 75.99 83.22 83.37 82.57 75.53 65.81 69.44 79.09 65.46 78.81 79.10 84.36 80.46 83.60 74.60 68.88 78.74 71.13 73.23 65.29 76.19 72.25 72.09 70.83 68.87 70.62 81.55 65.44 68.66 77.90 84.27 73.17 77.86 82.55 72.59 71.66 76.28 68.94 70.09 73.82 65.23 67.90 65.83 66.83 74.79 67.16 75.90 78.91 78.97 70.17 66.42 67.96 74.25 81.30 83.98 67.34 69.04 71.45 65.88 69.23 67.86 73.65 81.77 70.73 71.39 75.40 71.88 68.69 74.90 80.02 68.01 77.98 72.55 80.22 69.71 79.36 84.77 69.70 68.00 76.42 82.19 68.19 66.66 66.47 84.92 80.45 70.66 79.04 73.69 75.73 65.08 80.00 77.85 75.20 80.32 83.43 84.86 66.86 79.14 77.98 72.65 84.30 84.26 72.15 81.50 66.96 70.75 77.56 75.05 84.83 70.98 75.52 71.37 66.12 76.18 75.46 69.75 72.61 73.24 73.76 80.21 68.59 67.64 73.14 69.17 65.38 75.47 70.81 72.06 79.73 68.49 73.96 68.23 74.86 76.21 68.33 66.08 68.58 66.07 63.96 64.47 68.37 62.74 65.17 68.74 62.16 59.76 63.99 63.80 58.09 59.10 57.29 63.46 64.00 54.85 62.50 54.34 57.72 53.80 55.12 58.64 55.10 53.14 50.69 55.46 51.54 54.25 50.12 49.97 51.48 49.34 48.78 43.53 44.21 44.02 39.31 41.13 40.55 36.75 33.57 30.42 33.63 28.67 30.90 29.04 27.35 23.09 23.00 22.04 18.97 15.86 14.61 12.98 9.92 7.90 4.10 -9999 -9999
79.44 78.34 79.87 67.99 76.54 73.27 83.44 83.31 84.66 81.65 79.95 80.43 83.57 77.93 80.79 76.47 71.96 77.85 67.24 84.63 66.22 83.56 83.76 77.21 84.37 82.59 78.20 74.26 84.66 75.49 79.77 76.56 70.12 69.77 68.67 74.99 67.71 74.20 70.19 70.24 71.10 69.24 67.28 73.24 73.31 81.88 76.78 84.02 70.29 79.38 80.66 70.19 70.11 80.21 68.75 77.94 81.56 69.84 66.19 83.28 68.95 81.73 65.66 81.29 74.22 69.56 77.02 73.86 71.31 76.94 69.21 77.27 68.44 65.89 83.34 73.70 84.19 68.61 76.47 71.53 66.41 70.55 76.60 83.32 82.12 70.10 70.21 82.97 83.82 80.57 68.86 71.47 71.52 81.85 75.38 82.61 69.75 72.22 81.53 66.48 69.45 72.45 79.19 84.09 78.15 82.34 70.36 81.80 66.68 76.59 67.39 66.12 67.43 79.72 78.14 77.71 74.54 72.79 73.15 79.64 76.81 82.84 83.58 84.57 72.50 84.01 79.14 69.29 75.06 71.55 71.33 74.55 81.86 68.52 73.23 84.10 71.30 68.99 68.49 78.59 73.71 73.59 82.64 71.06 66.60 76.77 81.33 73.46 77.82 68.34 77.05 71.22 70.13 68.79 65.25 68.36 66.37 63.35 67.06 64.47 68.43 65.66 67.06 60.81 62.71 67.80 65.76 66.65 62.28 59.17 64.05 59.70 59.90 61.33 59.32 58.07 51.63 59.57 53.93 53.24 55.15 57.11 48.55 54.16 48.22 46.99 48.16 49.52 47.05 46.37 46.17 43.63 42.55 42.32 37.07 34.13 36.82 34.80 32.67 33.15 27.03 29.70 27.63 24.75 24.33 18.51 19.96 17.46 15.61 14.24 11.66 6.57 4.96 -9999 -9999
82.94 70.44 70.27 74.43 83.32 66.13 72.76 69.82 78.84 78.40 78.51 79.33 72.44 81.65 72.18 70.51 81.78 80.13 68.24 75.70 81.58 73.17 71.33 80.06 83.45 78.58 79.97 84.37 70.08 66.24 75.65 74.13 71.53 78.52 74.23 68.05 75.95 83.00 79.70 77.49 82.95 82.02 75.97 75.64 72.03 82.98 68.89 68.60 75.96 75.54 79.46 80.69 84.40 80.46 70.75 73.35 82.20 84.19 81.16 65.69 65.02 76.43 81.71 73.84 75.99 72.96 70.09 70.56 81.55 74.20 81.93 67.11 69.12 66.79 78.49 70.97 80.92 70.10 72.11 76.12 65.00 77.92 66.61 72.33 66.45 65.78 79.16 70.46 71.25 67.68 81.42 84.81 80.51 72.05 70.10 69.52 77.52 65.17 84.99 79.70 66.78 75.04 79.03 80.57 81.16 84.08 73.05 79.32 73.20 69.49 76.20 71.61 75.99 67.52 81.83 77.35 66.22 68.90 67.58 68.57 74.12 66.39 76.14 66.05 65.49 74.72 76.86 66.61 76.07 82.82 71.20 74.21 77.98 83.69 65.92 81.11 71.84 70.19 66.48 77.42 72.93 70.79 69.94 76.97 82.71 72.01 82.73 72.02 75.94 77.61 71.57 72.04 70.02 67.17 68.98 73.63 70.88 65.29 72.14 62.43 66.98 61.13 66.83 68.40 61.19 58.68 62.55 65.12 58.72 56.76 64.05 62.18 54.90 54.36 53.78 54.96 59.59 56.33 57.75 56.15 56.52 56.87 51.93 54.78 47.38 49.77 52.71 51.58 49.14 43.57 41.75 41.74 42.23 42.22 40.72 36.67 36.84 34.97 33.22 28.85 28.03 30.11 24.15 21.53 21.10 19.52 21.08 16.63 15.34 13.69 9.59 8.04 5.21 -9999 -9999
72.60 81.38 70.55 68.72 74.36 81.23 73.47 66.45 77.73 77.11 67.81 73.07 75.08 67.53 74.03 84.69 68.88 71.06 76.29 67.18 72.97 80.06 73.26 68.72 70.06 82.58 72.51 79.58 82.44 75.39 81.71 68.42 71.97 81.92 73.50 75.86 76.92 84.24 77.63 84.35 75.62 84.50 78.62 78.41 80.38 77.19 68.07 70.64 72.66 80.09 82.50 67.68 80.01 66.47 70.88 71.10 82.82 83.96 74.85 72.03 70.50 84.53 68.30 82.94 68.49 77.00 83.34 69.92 81.00 67.24 77.41 71.51 79.80 65.49 84.49 71.22 82.76 80.55 65.07 65.24 76.33 80.69 83.15 67.20 71.54 83.90 78.52 65.37 76.54 65.86 77.30 65.56 73.67 68.74 84.02 72.95 70.59 81.30 83.79 77.52 72.55 73.49 72.14 80.54 81.85 72.65 76.29 65.85 71.14 84.27 75.29 71.11 71.61 78.87 67.52 83.50 66.46 70.13 77.70 83.90 75.23 65.65 72.26 69.78 83.11 82.33 67.46 83.43 76.43 71.63 81.90 71.09 80.66 83.24 81.48 76.69 81.60 78.74 79.13 76.08 71.69 67.21 72.82 72.47 75.28 78.30 78.21 73.59 72.62 76.18 69.89 69.40 73.21 74.37 72.94 64.67 68.61 70.46 66.64 70.05 62.44 65.28 66.91 66.14 67.06 61.89 59.41 62.89 58.11 56.17 57.02 59.63 62.61 61.92 60.17 57.83 55.63 53.38 58.21 51.21 51.25 52.74 53.15 47.89 49.95 51.87 54.27 48.34 46.24 47.47 45.61 44.34 39.76 38.03 40.25 37.44 36.10 34.86 33.19 30.43 31.94 24.96 25.29 23.22 24.49 24.44 18.46 16.14 13.98 11.15 10.63 7.01 5.54 -9999 -9999
66.55 80.24 78.40 70.09 84.51 84.76 73.38 81.15 68.74 78.68 76.92 82.76 69.96 71.58 79.39 67.67 80.34 71.13 74.21 82.38 79.15 73.05 68.54 83.57 70.20 82.11 69.24 77.96 74.25 80.40 83.81 78.98 78.23 68.45 83.02 80.52 83.28 83.17 71.60 65.05 68.06 74.87 78.31 65.12 73.50 75.16 66.78 82.71 66.90 65.51 82.86 74.25 73.63 71.39 73.50 76.39 72.82 80.26 71.28 71.34 82.57 68.86 83.66 71.05 80.38 74.70 69.42 84.44 66.62 66.55 68.15 65.16 66.56 73.70 79.34 69.11 82.01 71.57 80.77 71.51 69.21 73.22 81.01 70.32 76.41 82.38 80.49 70.10 70.68 80.76 78.92 77.57 79.23 73.62 80.93 72.30 69.55 82.75 66.85 75.48 71.26 81.80 68.50 67.90 75.48 83.51 75.54 72.39 66.72 76.44 78.89 73.19 76.45 83.68 70.46 75.00 72.89 75.84 78.23 79.27 82.04 71.60 77.10 76.85 74.71 75.20 65.44 79.08 71.94 84.72 77.05 77.14 80.85 76.56 78.44 76.47 74.99 69.51 72.84 68.64 70.42 77.88 72.01 68.33 70.24 77.28 68.45 75.15 75.48 74.10 69.06 74.05 75.53 66.86 74.86 70.80 71.78 69.40 65.90 68.03 71.59 69.42 67.96 67.23 66.73 62.86 65.52 65.76 65.32 58.13 62.73 61.82 55.08 57.82 62.59 57.24 60.66 60.60 60.10 54.58 49.93 57.72 49.82 50.56 47.05 55.87 47.68 46.88 49.78 47.27 43.47 42.57 40.75 38.41 36.78 37.02 33.03 34.44 35.40 30.07 26.63 29.32 24.73 25.14 24.79 21.76 21.43 19.92 14.34 12.03 9.54 8.33 4.85 -9999 -9999
71.61 69.43 75.07 76.55 76.26 76.96 80.96 67.33 78.22 75.73 79.11 80.94 84.54 73.34 71.54 66.54 71.62 83.02 80.51 74.20 83.20 79.33 67.03 72.92 67.97 83.53 73.67 67.92 70.99 68.32 82.78 70.57 71.49 77.11 77.31 76.24 71.63 67.67 77.51 80.95 69.11 81.81 70.79 78.80 66.97 73.57 67.16 82.43 81.27 80.09 66.10 65.86 67.27 67.26 83.78 83.34 70.07 72.68 83.03 68.48 77.63 69.89 80.24 75.91 73.66 80.86 82.21 74.54 69.18 71.64 69.18 77.07 79.21 80.90 68.07 79.98 67.15 70.30 80.70 73.24 70.16 76.32 78.23 79.72 83.64 70.22 66.21 82.31 84.30 69.68 67.50 71.32 66.13 80.65 73.58 69.45 80.70 76.45 84.83 71.18 84.51 76.14 81.59 65.58 67.86 70.84 68.90 71.95 80.01 74.15 71.60 83.99 77.65 78.96 78.76 80.53 83.01 82.14 65.96 68.31 75.77 71.89 73.28 81.80 79.17 74.72 81.09 76.97 73.07 72.28 75.55 77.36 72.17 77.45 69.07 76.92 74.64 68.63 71.17 74.60 70.07 72.58 72.36 72.48 73.07 68.53 74.22 69.22 69.52 74.94 74.80 76.57 70.70 69.82 67.13 73.68 73.19 67.55 72.19 65.98 63.42 68.67 62.62 64.30 59.75 60.95 61.63 57.67 65.62 63.79 56.04 62.64 61.21 60.67 56.94 55.31 55.02 61.01 55.52 54.25 53.93 53.95 57.26 50.59 55.51 54.93 52.34 50.28 49.86 47.24 47.14 44.97 42.07 41.78 41.67 35.13 35.11 36.81 29.93 31.91 29.13 27.91 28.04 23.76 24.49 24.55 20.35 18.06 14.79 13.03 12.86 8.22 4.88 -9999 -9999
78.94 80.47 69.91 71.38 81.29 81.53 81.64 77.71 77.17 82.17 67.43 83.94 81.24 81.10 69.89 77.02 81.45 76.34 76.62 74.22 78.93 80.66 75.68 71.40 83.60 76.62 77.30 74.68 81.92 76.90 79.58 81.13 71.71 78.42 80.69 73.89 76.77 80.73 70.38 74.21 69.64 76.30 84.06 65.28 84.70 74.50 78.03 72.13 74.86 82.67 66.51 75.66 79.43 72.96 77.16 81.31 68.77 68.78 78.63 73.93 71.65 69.80 84.08 65.15 73.86 81.60 69.57 74.73 82.11 74.31 75.02 77.91 83.31 82.76 80.89 67.63 79.97 77.44 72.11 82.92 80.61 83.33 66.55 72.32 80.14 65.89 66.35 70.00 82.30 67.54 66.85 65.57 72.24 76.43 67.04 74.88 78.52 70.79 84.07 79.65 80.48 70.85 79.94 75.05 75.93 69.82 67.41 73.37 84.82 84.22 71.13 75.92 83.79 70.04 76.89 66.61 76.10 68.49 80.42 71.35 70.88 73.24 70.17 75.45 69.74 71.19 70.44 68.88 70.92 76.36 74.32 69.77 69.92 72.94 73.37 70.32 72.83 73.51 73.58 68.52 76.35 74.33 77.11 69.49 75.30 72.29 73.55 73.33 75.95 67.15 69.47 67.87 68.07 75.65 67.15 69.66 70.78 70.37 65.92 69.94 67.17 61.37 62.01 66.51 62.54 60.44 63.36 60.41 64.21 64.36 56.19 61.12 55.03 59.51 62.33 54.67 57.58 56.54 60.33 50.74 56.58 54.44 54.99 52.78 53.44 55.85 50.00 46.22 50.08 45.09 43.70 43.44 44.91 42.95 40.26 36.40 33.25 35.89 33.50 32.81 28.82 28.93 24.82 28.39 21.74 24.47 21.42 17.73 18.26 14.27 12.16 8.60 8.61 -9999 -9999
67.50 76.72 66.72 73.67 76.97 77.09 73.95 76.72 67.23 79.50 66.45 65.73 69.20 70.19 70.95 70.47 68.13 70.68 65.91 74.33 69.34 70.13 78.23 66.42 66.25 73.40 83.12 66.01 71.15 78.84 74.66 72.29 80.50 70.24 78.28 84.31 84.41 75.78 67.58 84.38 72.46 71.59 74.97 69.38 73.91 69.00 67.58 79.94 74.47 84.13 75.55 73.33 78.75 77.16 71.57 80.89 66.57 74.56 80.20 72.13 74.70 74.78 74.49 81.27 72.78 75.90 67.23 65.29 77.16 81.05 79.54 70.43 66.04 73.95 74.02 69.76 68.50 79.76 67.55 73.51 72.19 82.50 65.12 65.18 82.13 71.87 73.15 68.47 65.52 69.53 78.21 76.25 83.72 84.87 71.09 80.51 75.67 69.40 82.29 71.66 77.94 71.22 82.12 80.34 69.94 79.05 84.95 73.17 78.40 84.39 84.74 79.62 78.01 78.10 70.45 72.78 69.01 72.54 72.20 68.47 68.46 77.93 71.71 73.85 74.40 74.42 74.82 72.78 75.11 68.65 68.79 73.72 74.75 70.16 71.73 71.41 75.19 70.65 76.81 70.97 76.23 75.60 76.26 67.46 68.37 74.99 73.60 68.99 66.19 66.75 73.26 71.60 74.89 68.53 67.54 73.42 68.47 68.54 71.72 70.67 70.05 61.53 68.88 65.46 59.78 68.29 60.36 58.46 59.46 57.26 57.10 55.50 55.63 55.86 61.03 57.99 55.07 54.34 51.44 58.12 57.11 57.32 51.90 50.99 51.72 48.56 48.60 50.96 49.51 45.72 45.74 46.91 42.56 41.61 40.85 35.77 38.57 36.16 35.36 30.15 30.36 29.21 27.79 22.83 23.86 24.80 19.45 19.52 17.27 14.00 14.03 -9999 -9999 -9999 -9999
67.36 67.60 68.85 79.89 68.85 73.71 67.24 82.69 77.06 74.09 73.67 83.09 81.42 76.42 80.33 68.74 83.52 75.89 81.15 69.22 71.43 72.58 84.10 71.35 70.86 80.31 82.07 84.09 72.88 82.21 76.50 84.63 76.83 68.14 83.85 70.52 70.50 72.80 80.25 72.70 69.41 80.30 84.48 67.30 65.79 81.74 75.48 69.11 75.47 66.00 74.60 67.18 77.00 76.38 69.23 74.69 69.05 74.91 68.76 79.94 80.67 78.33 82.27 70.21 81.61 69.84 74.54 66.93 82.04 76.43 70.36 84.75 74.37 67.96 84.42 76.26 71.19 73.59 68.39 76.80 76.74 65.75 73.37 77.96 82.23 81.58 83.95 68.94 70.22 78.72 67.58 78.87 65.19 65.25 80.22 81.58 65.41 69.79 70.08 77.65 76.99 75.30 80.47 82.36 77.70 77.01 69.13 72.33 73.87 75.94 74.08 69.14 77.08 75.60 74.64 74.58 77.32 76.56 72.92 75.11 77.74 73.98 75.25 72.33 69.33 76.54 73.38 74.16 69.28 74.12 71.14 69.53 73.77 75.08 73.17 67.26 74.03 66.75 71.29 75.05 67.36 72.73 72.83 74.10 69.50 74.25 73.33 73.39 72.58 69.10 66.52 70.95 73.26 74.50 74.71 69.93 72.00 68.67 63.71 66.01 66.58 65.91 70.29 67.97 60.32 60.75 66.56 60.65 64.26 64.36 60.86 61.46 62.22 62.44 54.21 52.86 54.78 55.88 58.14 53.69 54.98 51.96 51.87 56.62 56.50 48.49 53.88 52.40 48.13 45.42 47.29 41.90 43.00 38.51 38.57 37.36 35.57 35.25 36.07 34.14 32.74 30.49 27.17 27.93 -9999 -9999 -9999 -9999 -9999 -9999 -9999 -9999 -9999 -9999 -9999
81.52 76.89 74.46 79.38 69.78 75.45 75.52 84.91 83.42 76.65 68.63 75.13 79.29 75.89 83.93 81.40 66.30 69.83 77.89 73.76 84.70 78.92 80.50 82.83 74.41 77.43 78.87 66.45 77.76 68.87 78.78 67.96 73.84 69.89 80.78 65.55 67.93 76.71 84.53 72.13 65.66 67.19 74.77 80.69 67.00 72.72 70.38 83.05 82.37 69.19 84.63 65.16 67.68 77.76 77.87 70.72 83.12 67.11 65.24 76.17 83.83 83.47 78.41 73.99 81.92 75.23 72.08 81.28 70.41 72.13 71.83 77.09 69.58 79.03 79.60 67.25 73.12 75.42 70.29 81.87 74.52 65.07 74.79 73.87 65.87 82.32 66.27 71.47 72.45 79.99 70.57 77.47 83.25 65.04 82.59 74.41 71.86 69.15 73.25 69.20 69.02 74.01 75.31 76.06 73.86 68.76 68.46 74.38 68.55 71.46 75.99 77.09 70.47 77.72 73.44 70.16 76.31 73.99 74.65 68.71 73.34 69.96 73.43 69.48 76.10 74.00 67.61 75.36 73.56 68.72 72.78 74.89 67.46 66.24 74.92 70.20 72.67 68.98 75.14 67.55 74.94 73.92 68.98 65.75 69.27 66.28 69.53 70.62 67.19 71.69 69.41 69.64 71.82 72.47 67.16 70.27 68.43 72.41 68.99 64.71 64.82 61.83 66.25 67.26 68.84 64.80 64.68 66.53 59.98 56.65 59.42 59.96 59.11 60.35 53.48 56.74 52.28 55.08 56.81 59.28 51.25 57.28 53.87 47.92 53.31 48.33 46.13 53.96 48.13 47.64 46.73 42.92 42.73 39.24 40.74 38.68 37.67 34.04 -9999 -9999 -9999 -9999 -9999 -9999 -9999 -9999 -9999 -9999 -9999 -9999 -9999 -9999 -9999 -9999 -9999
75.31 70.75 83.44 77.90 83.06 83.76 82.23 84.13 80.69 73.21 82.64 80.44 81.33 74.43 69.69 66.90 83.96 79.63 69.84 75.46 67.65 72.76 73.04 84.11 81.30 80.67 81.84 66.15 65.47 74.45 81.68 66.79 77.44 76.39 82.39 65.64 83.00 85.00 77.09 78.48 83.86 69.12 79.28 69.40 77.99 73.83 83.70 71.44 76.01 84.72 84.29 71.01 76.74 74.39 81.28 65.97 65.15 83.80 74.49 69.01 73.35 65.19 71.91 76.01 83.64 67.24 72.22 68.03 68.12 67.06 73.36 73.63 71.04 66.20 81.77 65.33 79.49 75.43 77.70 77.33 84.80 77.29 80.05 69.47 82.22 67.01 74.44 77.86 82.56 73.09 72.29 77.30 69.78 77.30 70.45 74.34 68.95 69.33 74.79 70.06 69.73 77.51 75.29 74.13 73.39 68.17 75.22 71.65 72.16 76.80 72.82 71.54 70.35 75.58 75.74 68.00 74.12 68.23 76.40 67.04 73.67 73.15 68.51 68.49 69.35 75.79 74.06 67.90 73.62 71.64 68.12 70.13 74.82 74.78 66.23 70.84 73.99 73.90 71.51 70.17 70.18 74.06 73.40 68.47 73.45 69.08 70.10 69.91 66.32 68.59 65.66 74.08 72.72 67.82 69.91 69.83 64.42 66.49 73.06 69.38 67.32 65.06 70.79 63.98 67.62 68.84 64.77 60.03 58.08 58.47 62.56 61.25 54.80 56.25 55.05 56.28 56.83 60.78 58.64 57.02 59.40 51.93 54.64 55.67 53.09 48.56 49.93 54.48 51.54 45.18 44.59 -9999 -9999 -9999 -9999 -9999 -9999 -9999 -9999 -9999 -9999 -9999 -9999 -9999 -9999 -9999 -9999 -9999 -9999 -9999 -9999 -9999 -9999 -9999 -9999
72.98 68.49 74.83 75.78 67.59 75.74 80.60 74.18 66.60 77.11 75.25 68.96 74.09 81.67 71.58 76.78 76.10 67.73 82.58 71.36 80.45 76.48 73.80 69.90 76.62 74.67 68.25 74.10 71.76 67.56 68.08 66.71 81.50 82.40 84.82 74.53 69.68 82.57 72.18 68.91 73.73 72.14 84.36 68.68 73.21 82.05 68.05 78.48 83.38 81.33 66.41 68.44 81.69 76.02 70.09 71.41 79.27 68.91 79.24 81.65 82.79 79.03 82.24 67.68 70.09 67.30 84.55 81.97 80.30 73.89 72.81 65.11 66.91 67.24 68.06 83.57 65.31 78.75 80.55 70.83 65.21 70.14 73.80 76.23 76.75 71.54 73.33 70.58 70.82 77.58 72.26 78.16 69.13 69.26 77.92 75.32 67.98 75.54 68.09 69.06 74.21 68.80 70.58 68.89 71.97 70.94 72.09 68.17 70.00 74.66 69.78 74.97 75.93 73.15 74.03 67.42 69.56 76.00 68.03 70.10 73.94 69.39 68.55 68.76 68.18 67.19 66.56 67.21 68.30 72.04 67.77 66.59 65.56 68.31 67.82 74.16 74.57 72.42 71.23 68.06 69.86 73.15 70.98 67.37 73.56 71.45 65.55 66.87 66.69 64.00 71.10 70.60 72.03 63.74 67.97 69.03 65.36 72.30 68.57 69.62 64.61 66.19 65.44 67.15 64.26 63.63 63.93 64.05 58.53 65.83 64.19 57.83 62.87 55.67 54.74 61.44 55.34 60.68 57.38 60.12 54.95 54.03 53.32 48.56 -9999 -9999 -9999 -9999 -9999 -9999 -9999 -9999 -9999 -9999 -9999 -9999 -9999 -9999 -9999 -9999 -9999 -9999 -9999 -9999 -9999 -9999 -9999 -9999 -9999 -9999 -9999 -9999 -9999 -9999 -9999
79.46 67.85 84.95 66.76 78.40 84.50 84.76 81.42 77.80 78.30 73.62 69.48 79.09 66.66 81.31 83.85 69.17 78.65 67.70 75.31 72.02 73.11 74.76 84.89 81.82 78.25 75.53 66.41 72.46 78.52 84.87 82.59 66.10 67.12 70.18 67.83 67.10 66.62 78.62 71.11 83.10 76.04 82.53 73.54 76.05 78.60 81.69 77.65 73.08 68.51 78.28 83.69 74.98 77.84 71.82 65.02 80.64 83.59 70.46 76.42 65.76 75.48 76.03 71.38 83.87 82.96 84.03 74.76 67.27 66.39 71.59 81.09 80.74 72.26 73.36 75.48 69.53 73.42 73.80 72.30 77.16 72.15 76.94 69.00 75.23 74.24 76.25 70.82 68.79 74.76 70.04 72.29 72.10 75.96 69.33 72.35 67.66 72.07 69.22 69.54 67.28 68.87 68.60 67.14 68.10 69.54 72.56 69.71 74.15 67.94 75.99 75.57 75.58 75.58 73.28 75.87 68.45 68.22 66.15 71.75 66.60 66.60 73.50 65.31 65.36 67.25 67.91 73.46 71.96 72.65 67.74 71.19 73.62 66.11 66.36 71.39 67.70 69.02 69.49 65.59 68.99 64.76 72.11 72.09 70.10 69.99 71.05 69.54 64.24 65.45 71.64 72.85 66.92 65.51 68.23 72.77 69.67 64.78 68.22 67.39 65.19 71.56 64.23 63.73 65.06 66.11 62.72 61.47 65.30 61.58 60.93 57.62 56.37 61.10 54.32 56.84 58.19 -9999 -9999 -9999 -9999 -9999 -9999 -9999 -9999 -9999 -9999 -9999 -9999 -9999 -9999 -9999 -9999 -9999 -9999 -9999 -9999 -9999 -9999 -9999 -9999 -9999 -9999 -9999 -9999 -9999 -9999 -9999 -9999 -9999 -9999 -9999 -9999 -9999 -9999
69.08 74.49 76.26 71.77 80.69 67.18 81.01 80.63 84.04 83.71 76.14 72.87 70.54 65.39 83.63 65.45 83.84 71.97 71.49 77.53 66.39 82.54 70.42 66.16 67.15 70.91 69.73 74.30 66.12 77.04 69.50 71.53 79.95 72.46 67.05 73.58 73.73 80.29 84.83 79.70 75.82 78.65 79.91 66.18 83.18 81.34 82.21 81.21 73.18 75.85 70.62 73.36 84.46 79.76 76.04 74.97 75.07 76.62 76.93 83.08 66.33 65.23 74.87 69.21 73.45 77.78 72.79 75.32 73.33 73.22 77.48 75.03 76.19 76.92 68.32 69.28 77.57 69.01 72.34 74.62 69.37 69.22 73.84 70.07 69.48 70.44 72.31 68.46 76.50 68.78 70.63 73.75 72.65 67.01 76.55 71.95 72.89 75.46 68.50 66.78 75.11 72.64 69.39 74.49 75.30 72.48 72.69 67.15 69.81 70.08 69.00 71.91 70.78 73.50 65.65 65.89 74.27 73.09 65.95 69.43 74.01 73.29 70.56 74.21 67.12 73.73 70.33 67.04 67.08 70.21 71.46 69.10 73.23 69.35 66.13 64.32 66.63 66.05 72.23 69.66 70.39 72.56 68.74 72.68 67.76 68.36 64.33 69.71 70.66 64.39 63.77 70.44 63.96 70.45 67.83 65.95 65.25 66.32 68.35 67.63 69.44 68.92 63.22 68.02 64.29 69.31 64.21 60.88 58.50 57.61 -9999 -9999 -9999 -9999 -9999 -9999 -9999 -9999 -9999 -9999 -9999 -9999 -9999 -9999 -9999 -9999 -9999 -9999 -9999 -9999 -9999 -9999 -9999 -9999 -9999 -9999 -9999 -9999 -9999 -9999 -9999 -9999 -9999 -9999 -9999 -9999 -9999 -9999 -9999 -9999 -9999 -9999 -9999 -9999 -9999
76.85 74.46 77.16 66.63 68.21 77.05 81.94 66.95 65.92 71.14 67.29 77.11 77.93 72.80 72.50 68.00 70.98 69.85 79.41 65.85 70.33 72.50 83.52 67.10 80.52 68.12 83.06 81.79 74.47 75.29 71.49 82.07 71.96 69.20 72.79 68.51 71.35 68.19 84.08 83.86 77.70 77.54 77.22 84.43 65.16 83.12 80.82 79.43 66.60 81.41 81.90 80.86 70.75 77.97 80.96 70.19 75.42 78.56 73.40 70.78 78.37 68.73 77.00 71.97 74.97 74.56 73.18 78.08 76.39 74.36 74.92 70.65 74.59 69.19 71.21 71.50 71.55 76.95 72.18 72.85 75.87 75.39 68.42 73.56 71.80 75.76 72.05 68.34 70.59 69.11 72.86 72.61 75.79 73.50 72.90 69.60 70.83 68.53 68.32 70.33 71.33 68.69 68.90 74.08 75.50 66.24 71.21 67.21 65.83 68.23 70.65 68.30 69.93 65.13 69.07 73.20 68.42 73.58 72.46 72.45 74.13 66.06 67.44 65.80 68.52 69.92 70.47 68.06 64.78 73.56 66.49 68.23 69.39 67.29 67.44 66.14 64.07 70.51 63.69 69.48 67.81 65.31 64.32 70.41 72.16 67.40 64.91 63.09 69.90 67.23 70.50 69.73 69.82 66.36 68.02 65.44 63.61 69.62 67.43 65.46 65.21 63.58 62.96 62.18 66.88 60.78 63.50 59.67 60.50 -9999 -9999 -9999 -9999 -9999 -9999 -9999 -9999 -9999 -9999 -9999 -9999 -9999 -9999 -9999 -9999 -9999 -9999 -9999 -9999 -9999 -9999 -9999 -9999 -9999 -9999 -9999 -9999 -9999 -9999 -9999 -9999 -9999 -9999 -9999 -9999 -9999 -9999 -9999 -9999 -9999 -9999 -9999 -9999 -9999 -9999
72.51 66.75 69.79 74.65 68.59 75.40 72.04 76.85 74.64 84.14 72.10 72.10 68.13 68.93 78.73 84.83 72.33 71.75 84.78 82.26 75.33 78.67 81.66 68.89 70.21 68.85 66.30 78.61 75.05 71.95 75.73 84.19 76.66 76.49 78.08 71.27 78.17 82.22 77.95 82.69 73.58 79.92 82.04 78.09 81.18 68.69 69.07 84.19 76.15 76.57 78.27 77.57 72.53 77.83 71.28 75.49 76.45 69.58 73.24 72.95 75.21 73.84 69.00 71.43 71.75 69.26 72.67 68.68 75.98 70.33 68.44 73.42 72.47 75.18 71.46 72.70 75.79 76.87 68.08 73.89 67.35 74.02 68.17 73.14 72.19 67.80 71.44 66.35 70.17 71.33 68.10 68.88 71.43 73.60 72.03 74.80 67.73 73.03 69.32 67.44 67.51 72.37 68.35 70.92 65.69 72.10 72.52 67.83 72.61 67.46 72.37 73.44 66.24 65.53 69.21 64.58 69.39 73.20 65.39 65.29 65.86 70.14 71.78 66.02 73.34 72.31 69.65 64.03 65.77 64.55 72.09 63.38 69.55 65.68 69.79 69.23 65.67 70.43 63.05 68.60 68.83 72.04 63.21 63.72 64.77 62.89 69.03 70.26 65.92 67.14 68.28 62.97 62.05 62.62 69.12 61.36 70.03 65.61 70.57 61.47 65.04 66.03 68.75 63.56 62.06 61.15 65.80 65.56 59.92 61.26 -9999 -9999 -9999 -9999 -9999 -9999 -9999 -9999 -9999 -9999 -9999 -9999 -9999 -9999 -9999 -9999 -9999 -9999 -9999 -9999 -9999 -9999 -9999 -9999 -9999 -9999 -9999 -9999 -9999 -9999 -9999 -9999 -9999 -9999 -9999 -9999 -9999 -9999 -9999 -9999 -9999 -9999 -9999 -9999 -9999
67.58 81.10 72.70 72.48 65.92 76.08 82.21 70.34 74.16 72.97 79.46 75.61 83.98 83.48 81.59 66.32 79.57 69.57 80.29 69.71 77.87 72.59 81.38 77.13 74.30 83.85 82.63 74.40 78.77 82.22 70.33 81.55 81.51 79.16 80.38 81.22 69.18 76.88 74.38 69.61 71.24 70.69 72.08 72.48 70.69 77.19 74.43 73.76 76.08 73.95 72.88 76.26 77.63 69.04 70.18 72.06 70.08 74.52 71.24 74.48 72.00 75.86 70.76 76.65 67.30 75.21 74.80 71.45 75.38 76.54 76.33 67.63 75.42 75.29 72.11 69.58 66.71 71.83 66.53 71.84 69.35 68.53 75.17 68.66 73.79 67.63 73.15 66.64 70.55 70.42 74.61 73.34 66.19 66.50 74.46 73.58 65.55 69.66 73.77 72.46 71.23 74.64 73.61 73.23 69.80 68.04 64.65 71.62 65.87 69.45 69.70 64.07 67.16 69.67 63.75 64.68 67.32 69.25 70.51 68.53 65.71 63.83 66.93 67.83 68.57 66.63 64.24 71.97 68.94 66.60 71.48 66.06 68.44 69.41 63.11 68.59 70.80 66.02 71.34 69.45 63.33 69.64 70.38 70.15 67.93 70.19 70.59 64.58 67.84 63.78 67.38 63.90 70.66 64.86 65.63 65.83 62.26 67.25 63.29 63.43 62.63 69.82 68.51 60.55 61.63 59.95 59.32 61.49 65.57 59.78 -9999 -9999 -9999 -9999 -9999 -9999 -9999 -9999 -9999 -9999 -9999 -9999 -9999 -9999 -9999 -9999 -9999 -9999 -9999 -9999 -9999 -9999 -9999 -9999 -9999 -9999 -9999 -9999 -9999 -9999 -9999 -9999 -9999 -9999 -9999 -9999 -9999 -9999 -9999 -9999 -9999 -9999 -9999 -9999 -9999
73.68 71.43 70.53 68.09 79.89 82.98 79.75 66.77 82.77 82.09 76.13 84.84 68.28 83.85 81.82 75.82 71.23 66.75 66.16 65.59 82.78 80.02 66.31 67.00 70.50 66.55 69.90 83.19 77.87 69.67 78.34 72.05 70.10 69.46 78.49 71.34 76.24 77.36 75.47 71.33 73.17 74.81 76.42 76.72 73.93 70.62 69.03 75.66 71.75 72.61 68.28 72.96 72.98 71.05 77.06 75.51 69.53 71.86 72.58 68.93 74.82 74.98 71.43 68.17 69.75 76.17 72.88 72.36 68.87 67.64 68.63 66.36 69.43 69.48 72.75 72.40 70.07 74.99 74.96 67.25 70.40 71.29 67.08 69.47 67.50 74.69 67.45 71.95 68.45 69.83 72.91 70.04 70.54 66.18 66.86 71.35 69.60 71.22 67.09 73.00 72.34 68.73 72.89 67.94 65.71 66.73 67.34 71.50 70.54 70.41 68.18 67.36 66.46 72.81 65.99 70.16 69.24 68.02 63.16 68.96 68.64 66.67 62.53 64.25 70.09 68.24 64.71 65.75 68.60 62.01 69.86 68.81 69.70 63.98 70.19 67.96 66.41 61.64 61.83 71.11 61.97 65.92 67.31 68.57 61.20 66.44 64.06 67.68 70.06 60.64 66.52 63.65 67.16 62.77 67.26 67.93 66.85 66.06 68.94 62.99 60.45 63.99 61.94 62.03 66.71 59.54 64.34 60.48 61.06 58.30 -9999 -9999 -9999 -9999 -9999 -9999 -9999 -9999 -9999 -9999 -9999 -9999 -9999 -9999 -9999 -9999 -9999 -9999 -9999 -9999 -9999 -9999 -9999 -9999 -9999 -9999 -9999 -9999 -9999 -9999 -9999 -9999 -9999 -9999 -9999 -9999 -9999 -9999 -9999 -9999 -9999 -9999 -9999 -9999 -9999
82.88 72.58 69.50 67.79 80.87 67.31 73.51 76.13 75.05 77.58 84.59 76.01 72.30 84.65 75.12 84.18 76.47 75.63 66.78 82.49 67.69 76.86 73.35 72.65 70.76 76.39 74.30 68.83 76.12 74.14 75.10 76.70 71.84 68.73 77.39 77.79 69.87 70.63 77.02 69.15 74.43 75.82 76.73 70.53 76.10 69.49 71.20 74.46 71.75 67.79 67.36 72.76 72.57 73.33 76.53 70.42 75.10 68.57 75.63 70.21 72.53 72.21 75.82 71.55 67.42 71.14 69.15 74.50 73.74 73.73 66.35 66.22 66.91 70.18 67.68 68.99 66.61 68.96 66.00 71.76 69.22 67.28 68.25 68.95 66.29 66.59 71.75 74.03 69.04 68.44 65.48 67.36 64.39 70.97 69.61 64.38 67.78 69.93 68.96 69.27 72.19 67.81 66.06 68.37 67.21 72.18 65.51 70.06 69.59 66.23 63.66 68.04 64.32 70.72 69.91 70.23 65.11 71.22 72.11 64.10 64.03 67.67 70.44 65.22 67.21 66.45 70.67 67.03 70.12 70.57 71.03 62.93 68.63 67.13 61.65 64.63 67.77 67.78 63.48 62.57 66.61 70.12 62.23 60.97 65.09 66.71 61.05 65.70 65.59 59.89 60.13 69.38 59.81 66.39 59.57 60.65 65.21 62.22 59.78 61.44 66.58 61.72 62.98 61.55 66.37 64.07 66.27 66.27 63.62 62.95 -9999 -9999 -9999 -9999 -9999 -9999 -9999 -9999 -9999 -9999 -9999 -9999 -9999 -9999 -9999 -9999 -9999 -9999 -9999 -9999 -9999 -9999 -9999 -9999 -9999 -9999 -9999 -9999 -9999 -9999 -9999 -9999 -9999 -9999 -9999 -9999 -9999 -9999 -9999 -9999 -9999 -9999 -9999 -9999 -9999
70.58 73.98 80.06 69.03 70.08 70.38 65.39 79.82 68.72 73.38 66.17 80.83 72.40 76.85 73.52 77.76 78.16 76.86 75.30 78.22 69.42 69.81 68.44 78.24 70.93 69.32 69.75 77.86 68.96 74.93 69.64 74.96 77.51 76.36 77.28 77.26 71.33 76.92 72.00 70.17 72.20 71.02 74.78 69.78 72.81 70.71 73.17 73.47 74.32 71.28 73.70 71.12 74.90 68.05 67.04 75.34 74.43 68.40 66.63 74.41 65.98 69.68 66.20 69.36 66.54 69.95 72.46 68.80 71.19 67.68 71.05 68.96 68.94 74.02 67.46 68.75 66.41 66.62 67.45 69.38 66.03 72.63 73.81 71.58 68.49 68.38 72.44 69.84 70.59 64.59 64.79 64.16 66.79 72.73 67.17 65.05 63.32 64.35 64.23 69.20 72.58 67.48 65.83 66.12 63.44 68.22 72.57 68.04 64.29 67.79 63.26 65.11 71.31 69.05 65.20 69.35 62.15 67.67 67.75 71.19 71.11 66.78 62.09 67.26 63.77 69.96 63.66 66.98 63.32 70.64 64.96 67.85 68.78 69.22 63.34 67.53 65.48 65.35 68.92 62.31 61.28 68.41 64.32 65.12 67.01 68.64 62.83 62.62 65.10 64.50 62.70 59.64 59.70 64.65 66.06 59.79 67.64 60.35 58.95 61.88 59.12 62.80 67.44 58.26 64.42 62.67 62.68 63.58 59.60 64.70 -9999 -9999 -9999 -9999 -9999 -9999 -9999 -9999 -9999 -9999 -9999 -9999 -9999 -9999 -9999 -9999 -9999 -9999 -9999 -9999 -9999 -9999 -9999 -9999 -9999 -9999 -9999 -9999 -9999 -9999 -9999 -9999 -9999 -9999 -9999 -9999 -9999 -9999 -9999 -9999 -9999 -9999 -9999 -9999 -9999
84.69 66.46 80.35 69.60 73.08 69.53 74.93 73.49 73.70 73.20 74.14 75.92 74.57 72.29 77.34 77.48 74.53 72.60 77.79 72.50 77.28 70.23 74.79 76.34 70.64 73.19 70.79 75.35 68.70 73.34 69.50 75.02 76.45 71.67 69.35 73.63 69.85 68.22 71.86 70.95 72.61 74.59 72.44 73.84 68.43 66.85 75.28 68.41 69.67 68.26 66.71 74.32 72.64 70.48 73.12 66.41 70.44 71.13 67.04 73.96 66.23 73.84 71.23 65.10 69.64 74.23 70.76 70.34 66.76 68.04 65.55 65.63 72.45 71.54 73.46 65.51 71.68 68.05 72.79 64.73 69.87 70.51 72.23 64.21 66.32 69.68 72.97 71.54 72.09 66.77 63.66 70.22 63.91 69.43 65.73 63.49 66.34 71.08 63.18 64.08 63.43 70.25 71.55 64.70 69.80 71.64 63.69 63.22 70.33 69.66 70.02 67.52 63.69 67.45 63.26 66.42 66.72 64.67 63.63 61.82 66.05 70.77 70.18 65.43 69.19 61.61 64.95 62.59 67.63 66.79 67.10 63.79 60.23 63.71 64.63 69.77 68.47 61.43 60.66 64.90 67.04 64.71 61.05 64.08 66.88 65.59 64.34 67.43 66.21 65.73 62.06 62.30 58.58 66.18 59.68 65.73 62.19 59.29 62.28 59.17 59.38 58.89 65.38 67.13 62.39 66.55 66.01 64.39 58.82 61.02 -9999 -9999 -9999 -9999 -9999 -9999 -9999 -9999 -9999 -9999 -9999 -9999 -9999 -9999 -9999 -9999 -9999 -9999 -9999 -9999 -9999 -9999 -9999 -9999 -9999 -9999 -9999 -9999 -9999 -9999 -9999 -9999 -9999 -9999 -9999 -9999 -9999 -9999 -9999 -9999 -9999 -9999 -9999 -9999 -9999
73.06 70.30 68.97 72.83 74.42 71.93 75.68 73.33 68.31 73.68 69.37 76.67 73.90 68.17 75.32 74.09 76.37 68.78 69.23 70.02 71.26 72.24 73.68 75.39 75.47 73.79 71.55 67.26 71.12 75.08 72.69 69.10 75.27 70.77 74.85 71.05 68.84 69.82 74.26 67.75 75.61 69.84 75.62 66.90 69.01 75.66 73.30 65.79 70.35 68.65 65.60 66.23 69.97 71.48 72.78 72.30 68.90 69.33 69.57 73.25 73.83 65.96 73.94 66.38 68.00 72.13 69.92 73.53 69.06 72.45 66.06 64.46 72.54 73.29 64.17 67.16 70.55 68.33 73.40 70.52 68.56 70.56 67.28 69.37 65.19 63.58 69.85 71.14 66.04 71.22 66.67 62.62 64.60 67.91 62.87 67.21 70.64 69.34 66.51 69.58 71.08 66.36 69.91 70.00 61.94 62.76 71.09 64.84 69.75 62.55 68.30 67.67 67.38 66.15 64.20 69.37 64.57 60.99 63.04 60.74 69.03 66.43 68.25 67.91 69.63 63.95 64.68 61.78 63.96 63.04 63.04 59.95 66.82 64.48 65.29 66.42 64.54 65.01 62.90 60.62 68.12 64.06 64.89 68.46 60.27 65.55 63.41 64.54 58.22 63.44 65.14 65.07 64.10 67.34 61.37 63.93 63.21 60.93 62.41 61.18 62.97 63.87 66.00 64.34 64.02 61.69 58.79 57.46 65.60 65.58 -9999 -9999 -9999 -9999 -9999 -9999 -9999 -9999 -9999 -9999 -9999 -9999 -9999 -9999 -9999 -9999 -9999 -9999 -9999 -9999 -9999 -9999 -9999 -9999 -9999 -9999 -9999 -9999 -9999 -9999 -9999 -9999 -9999 -9999 -9999 -9999 -9999 -9999 -9999 -9999 -9999 -9999 -9999 -9999 -9999
75.13 74.11 73.16 74.77 77.26 74.10 68.72 71.93 67.83 75.11 70.85 70.36 73.90 74.49 68.63 72.09 70.47 73.03 70.83 68.23 69.84 73.11 67.90 72.92 72.03 72.09 68.06 71.00 74.65 75.52 72.04 73.51 73.25 72.20 71.09 72.44 70.26 75.20 75.07 74.63 72.38 73.67 73.78 71.15 67.93 69.32 71.68 68.56 74.35 69.91 74.69 68.48 67.90 69.53 71.71 72.03 72.52 74.24 74.15 65.25 64.42 64.58 67.33 72.57 67.66 65.83 72.12 67.22 73.53 65.28 63.51 73.21 69.91 64.57 67.79 66.86 70.97 64.74 65.23 71.61 68.80 70.02 71.09 67.87 65.94 66.96 72.15 62.86 68.46 69.65 65.14 68.55 62.34 62.85 65.73 64.13 67.00 66.34 70.16 62.82 66.37 62.27 66.51 61.89 69.98 64.08 63.30 68.32 63.97 62.30 61.10 61.54 63.46 67.52 65.71 61.27 64.71 66.86 65.84 66.58 69.51 67.68 59.99 61.47 66.80 68.91 61.75 60.25 60.89 60.92 63.06 65.87 60.51 65.73 68.31 66.52 65.75 60.48 64.67 61.11 62.57 65.79 58.70 59.67 65.64 60.15 66.49 61.99 60.33 66.10 67.22 59.32 67.02 65.39 66.54 59.96 58.78 58.87 63.11 61.12 60.88 60.31 63.82 58.57 62.44 62.97 60.18 61.54 60.32 59.13 56.39 -9999 -9999 -9999 -9999 -9999 -9999 -9999 -9999 -9999 -9999 -9999 -9999 -9999 -9999 -9999 -9999 -9999 -9999 -9999 -9999 -9999 -9999 -9999 -9999 -9999 -9999 -9999 -9999 -9999 -9999 -9999 -9999 -9999 -9999 -9999 -9999 -9999 -9999 -9999 -9999 -9999 -9999 -9999 -9999
68.69 76.65 72.58 70.30 76.91 71.42 72.61 72.25 67.26 75.71 69.53 68.31 70.29 68.15 75.67 73.37 75.91 73.87 69.65 66.40 72.69 68.68 72.79 66.11 71.56 75.23 66.18 65.78 72.99 68.58 74.22 71.99 69.78 68.70 66.51 75.17 67.80 73.28 66.18 71.76 71.64 66.73 72.41 65.36 69.75 70.22 70.93 73.46 73.92 72.64 66.35 69.33 73.28 65.12 71.12 73.83 64.46 67.05 71.71 69.14 71.82 71.48 64.88 65.81 64.73 72.54 66.00 66.42 72.61 69.57 70.16 65.03 66.28 71.73 70.13 64.02 64.81 62.74 71.27 67.23 65.60 64.81 65.65 63.12 66.61 65.04 67.43 64.21 64.04 69.22 61.51 67.23 68.54 68.31 63.84 63.18 70.19 63.01 67.04 61.78 69.09 66.40 68.91 61.66 64.81 70.00 61.14 66.71 65.09 60.49 68.95 69.42 66.29 64.07 60.08 68.02 66.85 67.58 66.32 60.97 65.24 67.09 60.49 61.29 63.19 66.39 66.88 63.22 65.91 61.08 66.25 62.51 62.46 58.76 64.80 67.36 62.05 64.20 61.48 66.96 66.58 66.27 59.24 61.75 66.52 67.31 63.95 60.45 58.87 64.05 65.51 59.72 57.71 60.05 57.15 60.85 61.84 60.80 59.86 64.69 65.51 57.93 60.36 56.73 59.38 64.98 64.63 57.27 58.92 61.47 56.67 -9999 -9999 -9999 -9999 -9999 -9999 -9999 -9999 -9999 -9999 -9999 -9999 -9999 -9999 -9999 -9999 -9999 -9999 -9999 -9999 -9999 -9999 -9999 -9999 -9999 -9999 -9999 -9999 -9999 -9999 -9999 -9999 -9999 -9999 -9999 -9999 -9999 -9999 -9999 -9999 -9999 -9999 -9999 -9999
72.36 75.15 72.16 74.31 75.60 71.92 67.82 72.87 75.72 74.13 66.65 71.59 68.56 74.44 73.82 66.78 75.24 74.36 73.37 75.66 73.33 74.38 68.07 71.44 68.61 74.04 71.18 67.29 66.75 73.40 70.45 70.83 70.09 65.97 72.94 71.34 65.49 67.88 67.65 72.36 68.01 66.17 73.38 65.37 68.60 65.48 73.18 64.09 63.89 70.81 64.26 70.61 72.73 68.81 67.33 70.86 66.25 65.52 63.94 67.06 66.41 64.93 66.02 66.78 63.64 68.91 68.87 67.11 69.77 68.16 68.95 68.97 67.38 64.04 64.09 70.57 64.37 67.15 68.51 63.26 67.18 66.48 63.24 67.13 67.11 61.53 63.52 70.56 62.35 67.31 64.50 67.68 63.44 61.37 63.11 64.48 70.39 65.43 63.86 64.70 62.39 61.17 67.83 64.38 68.72 61.06 64.73 67.62 67.35 65.30 64.83 65.75 63.07 64.63 60.26 64.80 61.48 60.31 59.98 65.98 68.41 66.18 59.84 58.92 67.53 60.96 66.43 65.30 61.76 61.57 63.28 59.70 63.09 65.32 60.82 60.51 65.44 61.89 65.39 58.59 66.61 62.48 59.39 64.33 66.10 60.53 62.02 62.09 56.67 57.03 62.47 58.12 63.89 65.19 62.75 63.35 60.58 61.90 59.69 63.05 63.67 65.41 62.89 57.74 64.19 60.16 57.38 59.54 59.08 64.49 55.80 -9999 -9999 -9999 -9999 -9999 -9999 -9999 -9999 -9999 -9999 -9999 -9999 -9999 -9999 -9999 -9999 -9999 -9999 -9999 -9999 -9999 -9999 -9999 -9999 -9999 -9999 -9999 -9999 -9999 -9999 -9999 -9999 -9999 -9999 -9999 -9999 -9999 -9999 -9999 -9999 -9999 -9999 -9999 -9999
76.13 69.64 73.07 74.72 71.95 69.48 70.00 66.40 68.32 75.18 66.63 68.54 73.98 74.82 74.86 65.68 72.38 68.51 73.57 74.15 73.38 73.16 74.39 70.30 66.45 65.48 67.52 67.53 70.79 72.00 66.78 72.08 70.51 68.33 72.57 72.75 68.19 69.59 72.97 68.21 67.08 66.90 68.55 65.02 65.61 68.64 68.06 67.14 69.65 70.96 71.75 65.22 72.14 71.23 69.31 68.43 67.45 71.79 65.28 65.98 66.19 70.45 70.23 62.24 69.50 66.44 67.62 68.12 71.88 70.10 71.48 63.91 70.95 64.96 61.63 70.48 66.20 64.29 69.77 64.07 63.42 68.02 67.96 68.65 63.97 69.69 70.30 68.79 69.53 62.52 61.51 62.29 66.01 63.00 66.94 68.52 65.30 65.40 67.42 69.35 66.80 65.26 60.96 66.70 63.41 66.04 66.44 67.77 68.89 63.13 64.90 66.00 59.33 61.81 67.69 62.82 59.11 67.10 62.46 63.92 65.75 58.84 60.94 66.18 59.37 63.62 65.93 57.91 61.60 65.93 60.20 66.84 58.10 58.62 61.38 62.64 60.18 66.55 61.99 59.86 59.64 61.55 64.20 62.21 58.93 61.85 56.49 64.84 61.48 56.87 65.32 62.85 59.14 56.17 58.12 59.73 58.10 63.85 55.89 62.87 63.98 59.92 58.57 57.65 55.25 55.46 58.87 62.91 62.20 55.97 61.34 -9999 -9999 -9999 -9999 -9999 -9999 -9999 -9999 -9999 -9999 -9999 -9999 -9999 -9999 -9999 -9999 -9999 -9999 -9999 -9999 -9999 -9999 -9999 -9999 -9999 -9999 -9999 -9999 -9999 -9999 -9999 -9999 -9999 -9999 -9999 -9999 -9999 -9999 -9999 -9999 -9999 -9999 -9999 -9999
67.66 72.42 67.27 71.91 73.41 75.09 65.62 66.69 72.34 74.07 67.88 68.53 65.30 65.13 69.60 67.19 64.85 64.89 71.13 70.86 70.40 68.33 73.69 65.26 67.88 66.31 73.19 73.18 70.10 64.96 69.16 69.63 72.60 70.82 66.21 65.66 73.45 72.43 66.69 68.36 72.93 63.62 66.17 69.79 72.72 66.22 72.71 66.14 67.75 70.70 67.53 67.45 71.65 62.37 63.01 64.87 67.84 70.19 63.02 69.92 67.45 68.12 64.16 62.33 62.35 66.32 62.50 70.95 69.43 63.15 63.00 64.89 61.12 70.29 61.42 65.64 69.86 61.94 66.10 63.39 60.80 61.77 60.61 67.22 63.56 68.69 61.12 68.52 66.98 66.68 63.73 66.21 60.84 59.60 63.90 62.92 65.78 61.88 62.96 67.73 62.79 62.80 68.80 64.33 66.00 61.10 63.66 61.77 66.53 68.03 67.73 67.05 63.82 59.20 64.06 64.38 60.43 63.57 66.63 63.25 61.02 63.02 65.83 59.32 63.35 57.36 57.55 64.59 59.20 58.27 66.07 65.12 60.64 57.28 59.97 62.46 56.69 65.21 57.03 64.97 65.63 59.23 60.30 64.45 58.33 62.57 58.02 58.27 60.79 61.24 64.39 56.75 64.40 57.61 59.21 62.08 59.47 64.51 57.06 56.43 60.19 59.79 58.61 54.24 54.93 54.35 61.81 62.09 58.66 55.19 60.63 -9999 -9999 -9999 -9999 -9999 -9999 -9999 -9999 -9999 -9999 -9999 -9999 -9999 -9999 -9999 -9999 -9999 -9999 -9999 -9999 -9999 -9999 -9999 -9999 -9999 -9999 -9999 -9999 -9999 -9999 -9999 -9999 -9999 -9999 -9999 -9999 -9999 -9999 -9999 -9999 -9999 -9999 -9999 -9999
69.66 65.58 74.85 74.04 73.77 68.41 71.65 73.59 70.84 70.20 74.13 70.86 71.14 68.38 70.49 73.72 69.59 70.33 72.80 64.97 69.96 72.73 69.63 68.56 73.30 73.45 67.34 73.06 72.25 65.29 66.02 69.48 70.23 70.02 67.97 65.01 63.85 64.37 64.43 71.94 67.08 64.32 69.91 68.83 66.45 67.21 63.56 62.90 62.88 71.88 69.93 68.30 65.57 62.55 68.52 68.33 64.48 67.89 65.29 70.51 65.80 69.36 66.43 70.21 61.64 65.66 70.68 66.73 63.76 63.58 70.41 62.88 69.02 64.15 66.91 66.81 69.88 63.52 62.98 61.07 65.90 62.61 68.35 65.62 64.10 64.24 64.25 64.93 59.58 68.79 66.56 65.70 64.91 68.32 59.49 65.99 66.99 68.01 59.72 67.47 66.62 67.29 66.61 61.33 59.85 65.54 64.52 59.71 62.35 59.76 61.48 65.43 64.27 60.71 64.08 57.62 65.90 57.49 63.97 62.13 64.13 61.66 66.21 66.09 63.81 63.98 56.97 61.49 58.25 64.52 66.02 63.47 62.42 63.04 57.11 61.28 61.15 59.17 61.61 57.16 60.02 64.94 60.19 56.52 55.68 63.19 64.50 63.75 61.73 62.29 63.86 55.36 57.81 55.02 58.34 56.41 60.07 63.62 55.05 61.95 61.90 63.44 58.97 55.05 59.99 54.10 53.85 63.26 58.74 63.09 60.49 -9999 -9999 -9999 -9999 -9999 -9999 -9999 -9999 -9999 -9999 -9999 -9999 -9999 -9999 -9999 -9999 -9999 -9999 -9999 -9999 -9999 -9999 -9999 -9999 -9999 -9999 -9999 -9999 -9999 -9999 -9999 -9999 -9999 -9999 -9999 -9999 -9999 -9999 -9999 -9999 -9999 -9999 -9999 -9999
71.15 65.22 74.34 66.66 74.11 65.07 74.12 72.14 69.78 72.90 71.75 70.44 71.98 65.83 73.05 71.61 65.45 64.08 68.64 65.24 65.55 66.37 68.91 72.78 66.28 67.67 63.92 69.00 70.95 66.48 64.24 68.12 63.39 66.73 68.00 63.52 68.15 63.09 71.58 65.05 65.24 64.89 63.92 67.90 62.75 67.89 66.50 62.63 71.45 65.96 63.04 68.46 68.81 63.78 66.20 66.30 69.15 63.41 67.27 68.11 69.85 65.79 70.56 68.83 62.31 63.15 66.89 64.50 67.37 69.30 63.86 67.84 66.91 60.15 66.45 66.49 67.51 65.72 62.06 67.30 65.42 64.29 66.28 66.71 65.46 59.55 58.90 61.68 63.11 62.43 67.23 67.63 63.82 62.72 62.96 62.51 60.87 64.01 67.89 60.34 64.60 61.85 58.26 61.31 59.21 61.32 59.47 64.83 63.73 60.73 65.32 62.57 57.48 59.92 64.06 59.42 64.14 61.54 60.10 61.94 63.30 65.20 64.76 57.11 60.75 65.86 63.96 61.88 64.08 60.78 56.26 58.55 60.37 60.82 61.13 55.74 63.72 56.56 60.69 58.36 58.43 55.78 60.40 61.87 56.83 63.38 60.42 63.00 59.71 58.21 63.02 62.58 63.36 57.65 63.14 55.05 55.70 54.56 61.78 57.52 55.34 62.64 62.93 61.07 54.89 53.78 57.88 54.05 59.40 62.20 60.85 -9999 -9999 -9999 -9999 -9999 -9999 -9999 -9999 -9999 -9999 -9999 -9999 -9999 -9999 -9999 -9999 -9999 -9999 -9999 -9999 -9999 -9999 -9999 -9999 -9999 -9999 -9999 -9999 -9999 -9999 -9999 -9999 -9999 -9999 -9999 -9999 -9999 -9999 -9999 -9999 -9999 -9999 -9999 -9999
69.11 68.66 65.52 73.27 71.34 69.77 68.71 67.36 72.41 71.94 68.50 68.13 67.60 71.97 63.68 64.30 71.03 72.02 63.72 63.84 66.91 70.97 68.28 70.11 63.84 66.05 63.10 69.68 68.49 70.46 64.18 65.20 62.39 66.59 63.50 63.79 71.13 68.63 62.89 64.39 68.56 70.47 61.99 62.30 64.90 64.70 69.95 69.80 66.32 65.20 65.16 61.12 61.13 64.95 61.94 63.64 63.29 61.70 65.93 63.12 68.73 67.64 66.92 63.14 69.13 68.31 69.06 69.56 61.58 60.13 61.54 64.00 59.33 65.48 66.38 62.68 65.22 61.29 64.34 62.67 59.16 60.18 60.50 66.88 60.87 60.42 62.81 61.33 65.48 65.69 60.71 67.31 66.09 61.53 65.50 67.51 64.66 66.26 63.99 63.15 59.86 64.64 66.77 58.17 58.79 60.10 64.83 58.37 61.97 57.39 65.60 63.61 60.92 57.16 56.54 63.44 56.39 59.03 62.33 58.07 63.86 65.75 63.55 56.44 63.65 60.02 61.29 61.26 58.37 58.94 56.35 55.42 56.74 64.29 59.43 63.48 60.48 61.08 58.77 54.44 55.34 57.74 62.30 60.47 63.64 61.71 59.72 54.12 54.03 56.57 56.45 62.63 61.04 57.95 59.42 61.34 58.39 60.08 58.15 61.47 53.49 58.22 56.49 54.66 55.62 55.81 54.72 54.73 56.18 59.78 58.57 58.78 -9999 -9999 -9999 -9999 -9999 -9999 -9999 -9999 -9999 -9999 -9999 -9999 -9999 -9999 -9999 -9999 -9999 -9999 -9999 -9999 -9999 -9999 -9999 -9999 -9999 -9999 -9999 -9999 -9999 -9999 -9999 -9999 -9999 -9999 -9999 -9999 -9999 -9999 -9999 -9999 -9999 -9999 -9999
68.18 71.32 70.38 70.19 71.33 63.97 72.79 69.92 64.28 66.84 70.18 66.60 66.04 69.19 70.37 64.20 71.12 68.60 63.97 63.12 63.42 69.11 71.99 65.93 65.17 68.25 68.80 70.87 66.66 65.84 63.30 66.85 64.12 69.95 68.30 63.53 62.72 64.27 68.12 62.08 63.79 63.44 64.16 64.11 68.86 63.94 66.71 62.10 69.22 67.12 67.50 66.57 69.71 67.68 60.47 60.91 69.03 67.47 61.97 60.11 62.17 62.52 65.05 62.28 60.63 66.00 68.16 68.49 59.35 64.44 66.61 63.93 65.65 68.64 59.47 58.97 61.73 64.96 68.28 63.27 68.02 61.96 61.26 60.27 67.47 66.65 66.59 66.60 62.21 58.60 59.58 64.46 64.49 61.42 62.02 58.05 64.42 62.21 58.33 58.44 65.26 62.14 61.19 56.57 57.46 62.91 64.50 57.34 62.44 57.58 60.77 59.40 63.48 60.29 59.52 62.40 62.86 55.87 57.36 60.65 57.36 61.40 59.95 60.94 58.84 61.89 57.40 56.90 63.42 62.76 60.42 54.46 61.20 55.90 57.63 59.49 58.95 62.32 56.87 56.54 56.35 58.94 53.95 56.86 56.85 61.69 55.20 55.35 56.44 57.49 62.91 59.29 60.13 52.98 57.15 55.24 53.08 57.06 58.61 59.99 56.59 54.04 61.61 60.35 60.42 54.49 53.30 53.90 61.30 53.78 55.66 52.68 -9999 -9999 -9999 -9999 -9999 -9999 -9999 -9999 -9999 -9999 -9999 -9999 -9999 -9999 -9999 -9999 -9999 -9999 -9999 -9999 -9999 -9999 -9999 -9999 -9999 -9999 -9999 -9999 -9999 -9999 -9999 -9999 -9999 -9999 -9999 -9999 -9999 -9999 -9999 -9999 -9999 -9999 -9999
68.25 70.64 65.38 71.49 68.25 67.18 67.30 67.99 66.78 72.14 70.43 68.29 64.60 65.88 64.11 68.05 69.69 67.98 64.82 64.33 71.35 69.29 70.51 63.66 70.85 70.32 62.04 68.97 67.69 65.64 69.28 63.72 70.43 62.33 65.62 68.36 61.79 68.71 60.51 61.39 69.86 66.92 63.83 65.67 61.78 67.93 65.68 62.18 65.28 68.94 62.02 68.19 64.08 65.19 66.26 63.51 62.08 60.57 67.09 63.67 62.34 63.98 61.74 59.11 68.46 64.76 62.56 61.40 65.92 64.57 59.00 64.63 63.54 59.86 58.80 64.77 65.84 67.54 66.38 63.69 59.57 62.52 64.28 61.11 65.78 66.18 62.69 58.54 57.59 61.43 66.57 58.15 57.13 58.22 57.21 61.52 64.79 59.48 60.89 57.29 57.16 61.68 60.97 61.94 56.29 57.34 59.69 62.11 63.71 62.47 61.15 64.99 55.60 56.28 63.87 64.03 58.17 58.34 58.80 63.77 63.90 60.43 55.97 57.64 59.61 57.37 58.66 58.50 56.94 59.75 62.69 53.85 57.98 63.66 56.35 58.25 59.39 57.35 62.69 61.44 62.09 61.54 54.80 57.51 60.08 59.91 53.66 55.49 59.40 57.21 58.22 57.00 56.82 52.65 61.33 53.32 57.47 57.94 59.84 59.67 54.93 57.16 58.77 58.99 55.63 59.67 59.61 56.44 58.50 56.13 57.49 51.10 -9999 -9999 -9999 -9999 -9999 -9999 -9999 -9999 -9999 -9999 -9999 -9999 -9999 -9999 -9999 -9999 -9999 -9999 -9999 -9999 -9999 -9999 -9999 -9999 -9999 -9999 -9999 -9999 -9999 -9999 -9999 -9999 -9999 -9999 -9999 -9999 -9999 -9999 -9999 -9999 -9999 -9999 -9999
71.75 66.47 71.79 71.50 65.43 67.06 66.43 62.84 66.23 70.01 67.01 66.14 67.34 68.11 65.79 69.51 64.22 67.70 66.59 63.83 64.32 67.23 63.71 69.36 68.81 61.47 70.06 69.04 67.29 68.20 68.50 66.14 68.50 63.98 61.86 65.90 63.67 62.99 65.88 63.41 65.03 65.75 65.13 65.14 63.37 67.69 68.94 69.21 61.45 66.29 68.34 62.59 60.85 60.38 61.74 64.56 60.99 59.04 67.55 63.68 62.59 62.99 65.76 59.59 66.83 60.67 62.34 59.35 66.23 59.73 61.09 59.59 65.20 58.33 62.94 61.52 57.60 63.17 59.72 59.38 65.48 58.36 64.96 63.75 57.57 62.63 59.33 59.35 66.21 61.76 64.07 64.00 60.36 57.92 64.80 63.59 65.47 60.56 57.99 62.96 57.09 64.31 55.75 60.15 60.50 57.40 64.21 57.29 55.79 63.56 56.24 60.25 56.48 54.96 60.01 56.25 62.70 57.47 57.10 58.28 63.87 54.98 58.72 56.04 57.39 55.84 61.43 63.55 54.60 62.96 59.12 61.65 60.40 59.69 57.39 60.09 61.71 62.04 57.49 54.70 53.24 57.56 57.60 58.57 52.53 52.71 61.95 59.43 60.08 58.62 56.91 58.40 59.68 54.82 55.63 57.44 60.62 59.79 52.90 56.38 53.70 59.02 58.23 51.04 51.15 57.62 60.28 57.85 60.23 55.10 54.85 59.69 -9999 -9999 -9999 -9999 -9999 -9999 -9999 -9999 -9999 -9999 -9999 -9999 -9999 -9999 -9999 -9999 -9999 -9999 -9999 -9999 -9999 -9999 -9999 -9999 -9999 -9999 -9999 -9999 -9999 -9999 -9999 -9999 -9999 -9999 -9999 -9999 -9999 -9999 -9999 -9999 -9999 -9999 -9999
70.12 65.80 65.32 69.23 64.01 63.42 69.55 62.21 61.29 70.71 69.21 64.12 67.03 69.46 63.00 70.63 65.83 62.52 67.68 69.13 61.37 61.57 66.07 62.93 63.03 69.66 69.26 64.96 65.21 68.05 68.01 66.88 69.23 67.45 62.50 64.87 67.30 61.42 67.99 68.40 62.32 67.65 64.79 59.19 60.54 59.90 62.24 59.26 59.81 63.85 62.78 65.06 65.01 62.56 62.92 64.76 62.83 63.76 61.20 60.88 60.94 67.34 62.96 57.77 65.67 65.48 66.27 61.87 57.90 61.60 57.76 59.97 64.64 57.68 64.36 59.44 59.57 62.34 57.03 59.79 59.22 64.97 56.42 61.43 61.91 63.25 59.20 57.41 64.80 57.37 62.09 64.79 56.76 63.82 62.37 60.11 63.54 63.39 59.70 58.39 56.65 59.42 62.00 57.38 55.97 62.71 58.03 58.57 58.55 62.09 64.12 61.71 60.10 58.64 63.64 60.69 59.43 59.90 61.32 62.51 57.31 59.25 60.33 54.21 58.57 58.87 55.60 60.34 58.40 54.24 55.03 58.57 56.36 57.69 59.62 61.04 52.95 56.09 52.28 61.56 59.96 58.98 54.49 53.39 61.54 60.66 61.35 57.97 53.16 55.76 53.55 56.02 60.24 60.98 56.83 59.07 58.15 52.96 53.82 57.23 53.62 54.04 57.81 50.57 56.21 59.40 57.99 58.68 59.74 55.57 58.70 51.00 -9999 -9999 -9999 -9999 -9999 -9999 -9999 -9999 -9999 -9999 -9999 -9999 -9999 -9999 -9999 -9999 -9999 -9999 -9999 -9999 -9999 -9999 -9999 -9999 -9999 -9999 -9999 -9999 -9999 -9999 -9999 -9999 -9999 -9999 -9999 -9999 -9999 -9999 -9999 -9999 -9999 -9999 -9999
69.66 67.25 65.20 63.81 70.65 68.92 65.66 63.04 70.38 70.17 61.64 66.06 62.99 62.39 64.83 61.53 66.42 65.98 62.95 62.50 63.52 69.25 66.20 62.34 62.94 68.25 63.61 67.85 60.50 62.66 63.26 65.15 67.40 68.02 66.31 63.83 64.93 62.62 66.25 62.96 59.52 62.19 62.08 65.04 59.04 60.85 67.10 64.79 68.05 62.78 58.88 59.03 65.69 67.46 58.21 58.50 58.98 60.18 61.41 64.99 62.03 66.61 62.89 59.70 58.26 61.54 58.03 64.23 58.76 57.86 64.71 66.10 60.05 60.50 58.00 64.54 59.41 58.67 62.18 58.35 60.19 58.71 59.14 63.70 63.32 56.87 57.19 57.89 58.27 59.49 63.37 60.59 61.98 57.84 61.70 59.85 60.74 64.65 60.56 55.02 54.99 58.84 62.16 55.79 62.41 59.78 57.27 58.08 55.58 61.09 62.19 60.85 63.13 62.85 63.24 59.55 58.36 59.62 60.15 58.02 61.40 58.84 60.02 57.03 62.14 58.31 56.26 56.58 60.61 55.96 54.57 55.39 55.43 52.45 58.23 54.74 58.53 57.52 57.92 52.65 56.56 51.89 61.27 59.45 52.98 51.53 59.08 52.50 53.64 54.44 51.38 57.49 51.61 60.22 54.46 50.48 52.41 57.06 57.52 58.71 53.80 52.46 55.91 59.37 57.55 51.66 55.59 57.31 57.68 49.21 56.55 58.15 -9999 -9999 -9999 -9999 -9999 -9999 -9999 -9999 -9999 -9999 -9999 -9999 -9999 -9999 -9999 -9999 -9999 -9999 -9999 -9999 -9999 -9999 -9999 -9999 -9999 -9999 -9999 -9999 -9999 -9999 -9999 -9999 -9999 -9999 -9999 -9999 -9999 -9999 -9999 -9999 -9999 -9999 -9999
64.51 69.05 63.66 68.28 63.29 67.80 61.93 65.11 63.94 65.91 62.90 69.26 62.11 66.48 66.85 67.46 62.20 59.73 62.88 62.07 67.17 65.79 60.07 61.56 64.32 60.36 65.06 68.65 65.89 61.34 65.92 60.64 62.35 68.07 67.76 65.69 67.79 60.14 66.05 65.49 66.22 60.10 62.76 64.07 59.75 67.31 62.59 66.46 59.24 67.22 66.45 58.79 62.10 58.96 58.01 60.23 65.64 59.29 61.58 59.44 62.37 65.83 63.45 59.76 61.91 63.73 56.41 64.76 61.78 58.46 63.38 58.09 65.65 60.82 59.38 65.18 60.43 64.12 63.76 62.83 65.16 58.63 64.95 56.46 60.61 60.83 55.55 59.30 56.82 55.13 59.91 62.24 54.66 60.87 56.90 54.72 58.68 54.80 58.77 59.26 63.48 58.52 58.81 61.82 53.71 63.24 56.83 58.06 53.31 61.55 54.47 59.46 59.36 62.27 56.18 55.02 54.45 57.55 59.75 53.47 53.11 60.77 55.02 53.68 55.15 54.76 58.87 60.05 60.85 57.96 51.76 57.99 61.49 54.01 54.64 53.88 52.01 51.14 53.91 59.64 59.14 58.96 55.27 58.68 53.62 53.79 59.94 55.58 51.47 58.29 59.21 54.99 56.29 50.05 55.00 50.99 57.45 49.57 56.93 56.40 54.05 58.91 58.63 56.03 54.74 57.70 50.05 52.67 53.09 54.11 54.39 50.18 49.95 -9999 -9999 -9999 -9999 -9999 -9999 -9999 -9999 -9999 -9999 -9999 -9999 -9999 -9999 -9999 -9999 -9999 -9999 -9999 -9999 -9999 -9999 -9999 -9999 -9999 -9999 -9999 -9999 -9999 -9999 -9999 -9999 -9999 -9999 -9999 -9999 -9999 -9999 -9999 -9999 -9999 -9999
64.73 67.99 60.03 60.43 69.51 65.20 69.25 64.22 69.26 61.94 66.66 62.65 67.71 60.22 67.77 64.65 68.05 61.07 67.90 62.64 64.11 59.01 65.27 61.58 58.96 61.98 68.24 62.63 63.29 64.32 58.93 64.00 58.14 60.24 59.17 59.00 66.33 62.07 61.22 65.04 64.32 59.74 64.91 63.83 64.72 62.76 58.54 64.63 65.65 65.86 64.87 62.51 60.26 60.56 66.21 66.48 65.26 57.54 64.30 56.48 60.38 61.57 60.43 65.41 59.47 59.27 64.91 63.23 58.72 58.42 56.17 65.02 56.32 57.75 59.55 55.59 56.79 55.75 56.68 60.68 54.94 55.60 57.57 63.45 55.58 61.04 58.10 60.70 57.72 59.42 56.68 56.92 56.91 63.67 57.93 62.59 61.57 63.16 57.59 59.99 59.86 59.40 58.74 62.69 55.53 57.70 60.67 54.64 61.93 58.52 59.39 53.44 61.42 59.38 59.16 61.29 54.47 55.25 57.09 54.35 54.75 53.02 55.50 57.50 52.20 56.16 54.33 58.77 57.38 53.82 53.37 57.54 59.36 56.17 58.47 51.58 60.10 56.30 58.70 59.57 51.18 52.63 59.21 56.13 54.19 56.94 50.40 56.58 51.19 52.26 56.39 51.11 56.25 57.80 56.88 54.68 57.15 56.09 55.66 49.33 57.00 55.82 53.49 57.80 50.25 49.57 54.60 54.49 50.61 50.94 57.55 53.65 49.01 -9999 -9999 -9999 -9999 -9999 -9999 -9999 -9999 -9999 -9999 -9999 -9999 -9999 -9999 -9999 -9999 -9999 -9999 -9999 -9999 -9999 -9999 -9999 -9999 -9999 -9999 -9999 -9999 -9999 -9999 -9999 -9999 -9999 -9999 -9999 -9999 -9999 -9999 -9999 -9999 -9999 -9999
66.27 64.82 68.66 67.34 64.69 67.22 65.55 60.97 67.85 62.38 66.86 60.86 59.97 60.25 62.90 67.90 64.52 62.23 61.79 66.15 61.66 58.24 67.23 58.50 67.69 64.00 58.27 64.17 66.45 63.99 60.66 66.99 64.06 60.89 66.23 65.32 64.60 62.13 62.25 59.11 56.96 65.67 63.18 66.72 61.21 64.61 65.51 58.89 62.75 65.96 61.24 62.81 57.58 57.93 57.20 56.39 64.54 61.30 59.33 59.34 62.89 63.15 65.24 55.94 63.27 61.40 62.81 57.62 56.93 60.99 64.21 61.05 57.06 62.06 55.26 57.17 60.99 55.85 61.30 57.08 59.95 57.50 56.56 56.18 56.80 62.55 56.35 59.25 55.84 61.84 60.26 58.59 59.98 57.23 59.99 61.81 60.77 60.86 58.00 61.76 52.81 60.10 56.30 58.88 53.32 55.75 62.05 57.09 59.40 60.10 56.65 55.80 51.91 57.74 61.09 52.39 58.83 58.58 52.02 53.84 60.55 56.83 59.38 51.86 56.23 59.50 54.81 58.84 53.80 53.93 52.68 57.13 54.02 55.41 50.73 54.78 56.00 51.64 52.68 56.14 57.41 57.40 50.67 51.05 56.97 54.14 59.26 51.65 53.10 55.67 51.14 53.65 52.18 50.88 52.92 51.73 57.20 51.78 57.36 48.70 51.57 48.69 54.42 55.19 49.71 56.20 48.44 53.11 54.29 51.06 55.59 53.57 50.37 -9999 -9999 -9999 -9999 -9999 -9999 -9999 -9999 -9999 -9999 -9999 -9999 -9999 -9999 -9999 -9999 -9999 -9999 -9999 -9999 -9999 -9999 -9999 -9999 -9999 -9999 -9999 -9999 -9999 -9999 -9999 -9999 -9999 -9999 -9999 -9999 -9999 -9999 -9999 -9999 -9999 -9999
65.16 59.79 62.83 65.44 63.10 59.21 60.71 59.60 61.64 61.94 58.53 62.90 60.73 65.80 62.37 64.41 65.57 63.90 60.83 59.84 66.07 60.46 64.49 60.67 60.17 62.34 63.32 57.98 59.51 60.29 65.86 59.67 63.87 61.87 61.40 66.07 65.17 61.62 56.81 62.23 65.32 58.38 58.97 63.18 60.32 57.37 64.49 63.32 58.98 57.40 62.57 63.51 56.17 60.97 63.22 55.96 61.07 56.04 64.09 62.26 55.58 55.47 60.16 61.01 59.50 64.11 58.48 55.83 56.37 57.37 56.30 61.09 56.95 57.80 56.32 62.18 59.28 60.35 55.46 60.91 60.96 62.81 55.86 56.41 61.66 62.74 62.06 62.76 59.58 56.92 61.76 57.35 56.38 61.75 56.10 53.80 58.79 60.34 60.56 57.68 57.77 55.35 52.54 59.77 52.62 53.31 60.02 51.89 61.35 56.39 60.26 59.24 58.06 52.82 53.31 60.03 57.57 54.22 60.31 54.62 52.45 54.38 58.86 52.56 59.51 55.52 57.50 52.71 57.85 55.59 54.70 57.62 53.78 58.85 55.06 57.40 51.51 51.00 53.25 58.79 53.24 53.60 53.49 56.79 57.80 57.38 54.90 49.84 53.16 53.25 48.67 50.12 50.56 54.03 53.76 55.63 50.43 51.14 51.99 50.75 55.15 49.14 51.15 53.65 49.00 50.44 56.70 51.22 52.05 52.75 54.57 48.95 47.08 -9999 -9999 -9999 -9999 -9999 -9999 -9999 -9999 -9999 -9999 -9999 -9999 -9999 -9999 -9999 -9999 -9999 -9999 -9999 -9999 -9999 -9999 -9999 -9999 -9999 -9999 -9999 -9999 -9999 -9999 -9999 -9999 -9999 -9999 -9999 -9999 -9999 -9999 -9999 -9999 -9999 -9999
60.98 60.01 59.01 67.88 59.23 62.81 67.71 58.38 66.55 65.38 62.96 67.08 64.97 65.48 64.95 61.74 62.59 59.19 64.17 66.66 61.42 62.35 63.73 60.43 66.60 65.17 66.17 60.51 58.54 64.26 65.15 58.98 63.29 59.80 63.84 59.09 57.85 65.58 59.06 58.09 57.95 57.29 61.44 64.20 60.15 59.99 59.28 56.78 57.56 63.30 56.19 59.61 64.05 55.29 64.15 60.20 60.80 61.42 57.84 60.53 59.16 60.31 59.37 56.01 55.26 58.49 55.77 60.74 60.77 59.74 54.58 61.65 61.31 55.10 55.50 61.44 54.17 61.36 58.12 53.20 54.25 55.68 57.28 53.29 55.82 62.60 53.30 56.16 53.43 55.00 59.62 54.17 57.66 55.22 60.98 52.81 51.96 54.76 57.94 57.81 52.02 55.13 61.13 59.52 55.88 53.02 53.75 53.53 58.72 60.07 51.07 52.59 60.15 59.09 52.96 58.12 59.74 54.46 50.68 58.52 56.87 51.13 54.44 56.01 50.49 57.84 58.94 54.03 50.68 53.09 57.56 55.71 58.77 50.99 49.71 53.33 58.70 57.40 51.89 56.77 52.38 50.23 51.07 49.08 51.37 51.90 51.00 57.87 57.79 56.39 47.96 57.65 49.97 56.26 49.90 57.33 55.86 48.92 55.33 56.40 49.37 50.27 53.53 54.77 46.77 48.74 55.77 56.01 50.92 50.56 49.07 49.15 52.78 -9999 -9999 -9999 -9999 -9999 -9999 -9999 -9999 -9999 -9999 -9999 -9999 -9999 -9999 -9999 -9999 -9999 -9999 -9999 -9999 -9999 -9999 -9999 -9999 -9999 -9999 -9999 -9999 -9999 -9999 -9999 -9999 -9999 -9999 -9999 -9999 -9999 -9999 -9999 -9999 -9999 -9999
64.81 61.11 60.67 63.20 63.06 61.21 59.68 64.56 58.19 57.60 63.56 57.22 57.58 58.02 60.33 65.16 62.92 62.27 58.51 57.33 61.14 65.18 66.06 58.23 64.62 59.16 58.76 58.35 60.51 64.66 61.74 63.21 60.73 60.39 58.72 57.85 63.97 65.18 57.24 61.83 64.91 63.58 59.26 60.18 62.14 55.12 63.76 55.27 54.74 61.08 56.06 56.82 54.70 57.86 57.22 54.97 54.62 54.86 55.10 54.85 57.43 60.57 54.14 58.95 59.80 56.13 60.79 55.51 57.18 57.96 57.85 61.37 57.12 58.68 53.46 62.18 55.67 58.46 56.74 61.35 60.92 56.32 61.35 57.13 55.90 54.87 54.64 59.91 57.80 53.93 54.20 53.24 55.36 56.59 55.52 53.52 56.85 57.39 54.55 61.12 58.60 60.44 50.99 60.49 56.06 58.09 51.35 54.73 60.41 52.09 60.10 54.18 50.98 57.47 50.86 56.23 58.23 53.19 57.97 58.35 56.11 51.78 56.46 50.41 56.54 54.46 54.91 50.13 57.67 58.18 52.85 50.93 54.20 55.23 49.52 53.83 49.75 51.53 57.62 51.34 56.33 57.08 48.67 51.99 50.96 56.85 51.41 51.27 56.52 55.59 55.51 48.69 52.79 55.10 48.89 53.16 55.06 47.75 54.99 53.95 52.65 50.46 48.95 46.26 48.20 49.35 54.88 48.05 47.91 47.10 54.03 47.61 53.73 -9999 -9999 -9999 -9999 -9999 -9999 -9999 -9999 -9999 -9999 -9999 -9999 -9999 -9999 -9999 -9999 -9999 -9999 -9999 -9999 -9999 -9999 -9999 -9999 -9999 -9999 -9999 -9999 -9999 -9999 -9999 -9999 -9999 -9999 -9999 -9999 -9999 -9999 -9999 -9999 -9999 -9999
64.83 64.40 63.03 59.69 61.43 58.74 64.35 65.01 60.54 66.11 60.01 64.24 61.05 60.94 65.80 56.51 64.70 62.19 56.46 63.43 55.93 60.31 59.40 61.82 65.19 57.94 60.16 61.91 59.52 60.51 64.79 61.83 63.45 61.58 58.13 64.53 56.63 59.28 55.86 59.93 57.21 62.50 64.42 57.24 59.58 64.05 58.17 61.26 55.13 54.29 56.61 55.19 62.90 58.40 57.52 55.81 54.89 57.66 63.19 57.49 62.98 61.43 60.41 55.76 58.95 58.06 61.00 60.29 62.17 61.23 55.02 61.82 59.69 54.10 55.51 54.95 59.08 61.02 61.14 59.67 60.23 57.38 57.07 55.79 59.30 59.35 53.07 52.79 57.76 52.50 60.27 59.79 54.50 51.46 56.58 54.89 52.33 58.52 56.52 51.83 53.66 57.17 56.52 57.92 54.36 51.43 59.65 59.56 52.53 59.59 57.42 50.08 51.92 54.77 54.56 50.46 58.84 59.07 49.38 49.49 49.95 55.72 53.23 56.81 53.47 54.51 53.71 55.58 50.45 51.65 51.44 51.02 57.08 57.04 56.71 54.40 51.62 55.39 55.67 53.69 51.04 53.69 51.23 53.60 51.54 52.35 55.09 50.08 51.96 54.33 47.60 53.27 53.64 51.41 54.53 54.64 54.78 52.12 47.65 46.15 49.86 49.67 53.66 50.61 45.68 54.84 48.66 51.25 51.18 49.75 47.64 52.39 50.33 -9999 -9999 -9999 -9999 -9999 -9999 -9999 -9999 -9999 -9999 -9999 -9999 -9999 -9999 -9999 -9999 -9999 -9999 -9999 -9999 -9999 -9999 -9999 -9999 -9999 -9999 -9999 -9999 -9999 -9999 -9999 -9999 -9999 -9999 -9999 -9999 -9999 -9999 -9999 -9999 -9999 -9999
59.75 64.36 56.61 58.28 61.30 60.96 57.82 62.17 56.15 59.46 65.31 58.35 65.26 61.09 59.82 64.78 60.32 58.82 57.71 58.85 64.25 59.79 63.52 56.24 57.98 62.12 61.61 63.25 56.67 59.46 55.55 55.18 60.31 59.10 58.05 63.58 55.25 56.14 56.89 55.28 63.05 63.76 56.98 59.06 63.09 62.84 61.07 59.90 58.15 58.08 59.64 61.44 59.70 55.54 53.68 56.51 61.13 56.96 57.65 56.43 61.86 61.17 61.50 60.26 55.66 52.59 59.04 53.24 60.53 55.24 61.73 59.25 55.54 56.31 58.58 60.34 60.53 59.19 60.32 56.10 55.73 56.37 51.44 55.26 52.97 59.60 52.33 57.29 53.21 60.47 58.51 56.04 56.11 60.33 58.65 57.51 54.08 50.95 54.15 58.44 51.07 54.91 57.07 53.16 58.95 51.56 57.50 50.21 58.72 56.19 55.04 51.17 57.28 51.33 51.14 54.78 51.41 56.95 53.75 55.15 50.68 51.90 53.25 54.47 57.86 53.68 49.62 53.19 49.14 57.68 53.63 53.74 53.19 48.34 50.90 56.79 53.61 52.79 55.67 53.55 56.06 48.37 48.46 49.74 51.94 52.78 47.65 49.69 49.56 47.56 48.57 50.29 50.46 47.51 54.53 47.70 50.85 54.43 48.19 48.04 46.36 54.33 54.23 49.20 51.67 47.99 51.20 50.54 50.67 47.03 50.06 48.56 46.56 49.85 -9999 -9999 -9999 -9999 -9999 -9999 -9999 -9999 -9999 -9999 -9999 -9999 -9999 -9999 -9999 -9999 -9999 -9999 -9999 -9999 -9999 -9999 -9999 -9999 -9999 -9999 -9999 -9999 -9999 -9999 -9999 -9999 -9999 -9999 -9999 -9999 -9999 -9999 -9999 -9999 -9999
62.35 61.57 63.95 56.37 57.00 56.41 56.88 58.27 57.49 57.39 59.65 59.96 56.16 61.20 63.51 56.81 57.88 62.30 64.04 59.69 57.09 56.80 57.88 62.44 54.61 63.12 63.16 57.00 64.27 58.01 55.29 58.25 56.71 53.99 56.99 62.80 59.24 61.93 54.76 56.75 58.50 60.22 57.05 58.15 58.93 60.74 62.61 53.39 53.19 58.36 53.21 53.90 53.99 52.75 57.78 53.57 56.96 57.89 55.00 53.08 57.59 53.83 53.08 55.64 58.74 58.56 59.26 59.76 54.85 53.40 57.02 54.26 54.98 54.62 59.07 52.85 60.43 53.63 54.61 51.57 52.55 55.86 53.50 53.72 52.07 60.32 52.84 57.51 59.75 52.70 59.44 54.49 57.96 52.74 54.85 54.36 50.92 52.66 52.64 51.25 49.89 49.98 57.53 55.31 53.21 55.46 50.81 52.74 57.19 55.54 51.79 48.95 55.91 50.36 49.36 55.69 48.42 50.16 51.84 57.77 47.94 47.92 55.55 56.30 54.50 48.90 55.93 53.03 50.09 49.66 54.99 55.77 53.24 53.79 49.38 50.53 54.86 55.77 54.30 54.33 52.12 50.69 47.23 49.22 52.75 51.85 47.22 45.91 48.26 53.24 52.59 48.31 50.97 55.15 46.75 49.19 47.33 48.62 50.58 49.52 51.50 49.49 51.30 46.81 46.94 46.60 48.21 47.68 49.91 47.73 45.30 45.34 47.73 44.81 -9999 -9999 -9999 -9999 -9999 -9999 -9999 -9999 -9999 -9999 -9999 -9999 -9999 -9999 -9999 -9999 -9999 -9999 -9999 -9999 -9999 -9999 -9999 -9999 -9999 -9999 -9999 -9999 -9999 -9999 -9999 -9999 -9999 -9999 -9999 -9999 -9999 -9999 -9999 -9999 -9999
63.15 61.37 63.56 61.55 59.17 56.69 55.39 60.45 55.64 59.56 58.54 61.43 61.28 57.08 57.50 62.19 63.01 61.40 61.48 56.35 60.69 62.46 62.04 60.75 62.21 56.20 54.68 57.94 58.14 59.75 58.25 61.78 55.09 56.47 54.86 58.97 54.14 58.72 61.13 58.15 53.42 61.14 55.07 58.73 58.29 58.81 52.86 56.52 59.82 57.50 60.22 56.03 57.80 53.45 52.97 53.94 57.40 58.96 59.85 58.77 60.78 57.60 52.00 52.02 52.72 57.44 51.78 57.18 51.17 54.59 53.97 58.23 57.63 54.54 52.87 53.22 54.78 56.50 56.43 54.40 55.93 51.26 52.25 53.20 55.46 54.69 49.90 58.68 57.52 51.23 50.07 58.73 54.29 56.33 51.80 57.31 58.18 58.43 54.45 48.91 50.46 56.72 55.48 55.48 57.04 52.86 49.08 50.61 51.30 51.10 50.70 50.12 50.18 54.31 48.68 54.63 52.76 50.27 50.68 49.71 53.17 52.75 56.89 51.46 54.04 52.24 54.73 47.95 50.82 50.66 47.97 55.66 46.76 55.60 50.48 51.77 51.47 47.32 53.16 51.52 53.41 50.53 48.60 52.59 52.08 46.05 55.01 46.49 50.97 45.34 47.52 47.14 49.34 47.30 50.30 51.91 51.03 46.81 46.94 45.26 45.45 46.97 46.15 49.34 47.26 44.95 49.72 44.34 46.89 44.86 48.92 47.65 44.85 42.48 -9999 -9999 -9999 -9999 -9999 -9999 -9999 -9999 -9999 -9999 -9999 -9999 -9999 -9999 -9999 -9999 -9999 -9999 -9999 -9999 -9999 -9999 -9999 -9999 -9999 -9999 -9999 -9999 -9999 -9999 -9999 -9999 -9999 -9999 -9999 -9999 -9999 -9999 -9999 -9999 -9999
59.79 55.59 60.11 61.38 57.85 59.24 62.51 56.08 60.61 57.40 63.62 57.69 55.12 63.31 59.84 60.54 60.15 55.13 59.47 61.21 59.22 54.88 61.58 60.45 53.73 57.57 57.25 55.28 56.74 60.30 53.23 60.87 56.48 59.54 60.40 54.62 58.86 57.00 55.68 52.96 59.11 59.79 62.02 59.25 53.43 59.93 55.51 60.95 53.51 61.52 54.94 61.04 56.79 52.99 55.41 59.21 59.42 59.22 56.27 58.62 58.27 58.31 50.90 54.55 60.49 55.62 52.98 52.09 52.09 57.99 57.13 50.95 58.83 58.07 58.37 50.54 56.13 51.46 59.75 50.02 57.62 54.47 59.12 56.75 49.80 53.13 53.29 55.26 55.95 58.99 50.01 56.37 55.22 55.50 54.82 56.08 54.24 56.31 53.43 53.77 52.96 52.25 56.21 54.88 54.59 56.78 49.81 51.56 53.68 55.22 48.93 51.03 54.97 48.17 50.13 48.97 48.58 54.01 49.59 47.50 46.98 55.29 49.40 55.67 47.61 50.27 55.04 47.71 53.03 49.51 48.43 51.31 52.46 47.70 49.13 48.50 48.54 50.89 47.19 47.55 51.13 53.17 47.63 48.33 48.71 48.22 48.63 49.17 49.29 46.68 49.42 49.85 47.11 46.75 47.00 47.50 49.79 44.64 45.82 49.58 46.09 47.83 47.41 44.20 47.16 43.36 44.53 47.41 46.25 46.96 41.79 45.08 43.69 45.70 -9999 -9999 -9999 -9999 -9999 -9999 -9999 -9999 -9999 -9999 -9999 -9999 -9999 -9999 -9999 -9999 -9999 -9999 -9999 -9999 -9999 -9999 -9999 -9999 -9999 -9999 -9999 -9999 -9999 -9999 -9999 -9999 -9999 -9999 -9999 -9999 -9999 -9999 -9999 -9999 -9999
56.55 63.28 54.35 58.98 54.29 62.52 57.68 63.54 63.42 62.44 63.35 56.87 63.10 62.76 62.35 54.72 53.91 61.32 55.41 53.53 59.80 56.92 57.25 58.83 54.33 56.03 60.67 55.64 58.69 53.38 52.77 55.91 57.81 54.11 57.78 53.29 60.88 60.41 53.28 56.12 57.53 54.75 53.05 52.21 60.18 59.01 59.73 59.69 55.98 58.05 60.67 57.77 55.00 52.36 60.74 58.71 57.58 55.65 60.19 59.07 52.40 51.12 53.56 55.44 55.75 57.66 55.72 51.92 54.66 52.05 52.52 57.11 56.78 58.90 53.49 51.41 53.21 57.00 52.24 53.15 57.63 58.76 50.19 58.62 49.35 55.10 49.76 49.21 51.64 51.74 50.76 52.12 53.65 49.17 50.36 56.45 55.87 50.45 55.52 51.15 52.50 54.58 56.24 55.25 50.64 54.49 51.89 49.92 50.72 49.22 56.20 52.66 50.99 48.96 53.78 48.59 54.78 50.57 48.65 50.20 54.15 53.53 50.01 46.54 48.74 49.72 50.51 48.89 49.44 48.27 48.62 47.40 47.91 49.63 46.97 51.30 52.80 48.44 52.37 50.42 46.77 51.21 47.03 45.87 46.12 45.09 49.19 46.21 46.84 45.98 49.94 45.59 47.96 45.87 44.01 46.76 48.46 45.93 43.36 45.42 42.18 44.23 46.60 42.88 43.71 42.10 44.29 40.89 45.41 43.54 42.11 45.23 43.67 40.85 -9999 -9999 -9999 -9999 -9999 -9999 -9999 -9999 -9999 -9999 -9999 -9999 -9999 -9999 -9999 -9999 -9999 -9999 -9999 -9999 -9999 -9999 -9999 -9999 -9999 -9999 -9999 -9999 -9999 -9999 -9999 -9999 -9999 -9999 -9999 -9999 -9999 -9999 -9999 -9999 -9999
61.47 60.29 63.41 56.72 55.49 63.08 62.17 61.21 56.83 61.31 61.64 54.40 53.02 61.26 54.05 53.55 54.58 59.72 55.21 59.41 53.66 54.39 52.67 54.32 52.46 53.67 54.46 57.55 58.93 52.50 61.58 59.46 58.73 58.41 56.58 58.69 58.03 55.03 52.67 58.80 57.22 51.52 51.35 52.24 60.71 51.63 51.38 51.95 55.30 55.12 52.48 54.48 53.93 50.42 50.84 52.75 59.76 54.72 53.22 52.20 50.17 59.74 58.29 53.91 49.67 57.80 57.26 58.56 57.19 57.26 52.14 55.73 58.23 49.74 58.02 50.71 51.43 50.06 50.98 51.28 52.01 55.93 54.12 58.22 54.83 56.70 55.19 52.40 55.76 47.99 54.14 53.76 57.64 53.81 50.15 55.29 53.19 52.43 52.80 53.90 50.54 55.87 51.98 47.48 51.74 54.60 49.85 51.94 53.46 53.55 51.21 56.19 49.88 52.83 52.72 55.78 48.49 48.81 48.55 53.77 51.37 47.78 50.23 52.97 52.74 51.00 49.18 49.56 47.40 49.92 50.57 50.73 46.44 49.82 48.09 48.55 50.76 45.81 49.46 49.12 46.33 50.26 47.52 48.01 45.76 44.55 48.10 47.32 44.34 44.85 47.80 44.69 47.10 45.49 45.13 43.74 42.75 44.70 44.40 43.22 41.03 44.18 40.75 44.88 43.14 40.27 43.78 42.51 44.42 41.13 43.32 39.77 39.42 42.00 -9999 -9999 -9999 -9999 -9999 -9999 -9999 -9999 -9999 -9999 -9999 -9999 -9999 -9999 -9999 -9999 -9999 -9999 -9999 -9999 -9999 -9999 -9999 -9999 -9999 -9999 -9999 -9999 -9999 -9999 -9999 -9999 -9999 -9999 -9999 -9999 -9999 -9999 -9999 -9999 -9999
62.78 61.29 59.24 58.55 58.03 58.65 60.98 54.78 58.43 60.22 57.30 56.99 58.14 58.66 57.44 60.95 53.65 61.55 56.90 57.85 59.78 60.89 52.28 52.75 56.55 56.75 58.23 55.80 54.31 59.12 59.67 52.29 51.20 52.57 52.13 56.23 52.62 57.11 54.24 53.49 59.21 54.68 58.42 54.06 50.44 53.52 57.73 58.50 58.56 53.50 52.49 57.91 50.25 56.89 54.33 52.65 50.79 56.51 58.92 51.61 52.55 57.29 52.72 57.32 54.02 54.08 53.10 55.14 51.19 55.15 48.63 56.77 48.50 54.40 57.13 51.47 56.71 55.23 56.92 54.49 53.25 48.76 52.63 55.05 50.84 54.48 56.50 51.10 48.79 54.30 51.81 53.53 49.84 51.34 51.76 47.07 47.77 50.25 56.06 48.02 53.40 46.72 46.91 47.45 54.77 52.86 49.92 52.07 46.55 48.13 50.18 52.29 52.42 55.38 46.50 49.47 51.04 49.75 45.49 45.15 45.99 51.78 48.05 52.01 48.40 51.45 51.36 47.57 50.56 46.48 45.81 49.99 50.48 46.44 45.13 49.90 48.69 46.85 49.57 48.47 45.72 48.95 43.36 44.36 44.91 45.69 45.47 42.50 47.32 42.16 41.53 46.92 44.16 45.27 43.46 46.18 42.27 42.94 41.21 41.32 39.96 40.20 43.51 38.93 42.22 38.50 39.24 40.36 38.59 39.03 38.10 41.36 41.40 42.23 -9999 -9999 -9999 -9999 -9999 -9999 -9999 -9999 -9999 -9999 -9999 -9999 -9999 -9999 -9999 -9999 -9999 -9999 -9999 -9999 -9999 -9999 -9999 -9999 -9999 -9999 -9999 -9999 -9999 -9999 -9999 -9999 -9999 -9999 -9999 -9999 -9999 -9999 -9999 -9999 -9999
60.74 60.27 60.00 58.90 52.40 61.59 61.22 55.16 55.63 58.92 58.99 54.50 55.95 54.25 58.23 53.37 53.46 59.82 55.52 55.47 54.55 54.48 51.26 52.71 53.88 53.63 57.13 52.67 56.83 54.53 53.32 57.41 54.20 60.20 56.47 56.95 51.81 56.72 51.90 56.07 58.09 50.18 51.72 57.30 51.93 49.76 49.85 54.81 58.06 55.96 50.03 52.51 50.89 50.97 50.34 51.55 54.37 58.36 52.80 56.21 54.29 58.06 49.75 52.92 54.22 55.74 56.86 51.92 54.24 50.88 48.56 50.30 55.19 52.81 53.98 52.11 50.29 50.25 53.27 48.33 52.70 56.07 47.38 51.12 52.52 47.45 52.37 50.34 53.07 51.44 52.45 50.92 49.07 51.43 48.31 47.01 52.79 54.29 52.03 48.04 47.95 52.50 47.92 50.38 53.09 50.46 54.15 46.80 50.33 48.89 45.94 51.75 46.83 47.08 47.25 52.25 47.61 47.95 48.27 47.29 47.88 51.38 48.43 46.56 49.11 48.57 45.83 45.95 49.33 45.64 47.29 44.07 45.54 47.58 48.68 47.00 44.27 45.03 43.86 45.26 43.85 46.58 42.88 43.22 44.64 43.52 44.58 41.47 43.37 42.51 45.44 43.18 41.30 44.16 44.42 39.67 44.04 42.14 44.20 38.85 38.96 40.55 41.69 41.94 40.46 39.03 41.82 36.81 36.55 40.93 40.43 40.98 39.50 36.68 36.36 -9999 -9999 -9999 -9999 -9999 -9999 -9999 -9999 -9999 -9999 -9999 -9999 -9999 -9999 -9999 -9999 -9999 -9999 -9999 -9999 -9999 -9999 -9999 -9999 -9999 -9999 -9999 -9999 -9999 -9999 -9999 -9999 -9999 -9999 -9999 -9999 -9999 -9999 -9999 -9999
55.32 57.85 59.48 55.92 51.99 57.33 53.56 57.80 54.77 56.78 53.30 56.57 52.19 58.23 54.92 53.99 58.87 60.82 58.48 54.84 57.63 54.93 58.22 60.10 60.01 60.17 53.36 52.34 55.48 56.43 59.29 57.90 53.22 52.56 58.43 51.70 53.06 49.95 50.36 56.88 56.77 56.10 53.47 54.34 58.12 52.75 49.68 54.65 48.99 53.05 55.61 58.33 53.66 54.20 50.00 55.31 56.15 52.50 52.08 57.17 55.11 51.42 54.85 48.82 56.21 48.66 54.09 54.60 53.65 47.61 50.79 53.60 52.60 52.01 47.21 48.75 52.03 53.14 49.88 49.69 48.60 47.91 53.03 46.66 47.04 51.61 48.93 48.33 50.74 48.21 52.22 49.90 48.16 46.28 48.66 46.81 47.23 53.51 52.47 51.30 53.41 51.41 46.65 48.27 50.28 49.66 50.38 48.64 49.93 52.12 49.35 46.11 48.80 45.74 50.11 45.39 45.25 45.83 47.64 48.50 48.53 49.45 48.11 47.27 45.84 43.48 45.79 46.48 45.10 48.17 46.92 44.29 44.18 43.91 44.21 43.71 42.92 43.46 45.31 40.61 44.74 45.73 41.95 43.62 45.32 43.69 43.21 44.14 39.28 43.66 41.14 38.21 42.59 39.71 41.71 39.37 43.21 39.51 40.28 39.12 37.99 40.25 40.30 38.52 41.34 36.45 36.99 39.20 38.18 36.70 36.32 39.97 36.75 38.52 36.57 -9999 -9999 -9999 -9999 -9999 -9999 -9999 -9999 -9999 -9999 -9999 -9999 -9999 -9999 -9999 -9999 -9999 -9999 -9999 -9999 -9999 -9999 -9999 -9999 -9999 -9999 -9999 -9999 -9999 -9999 -9999 -9999 -9999 -9999 -9999 -9999 -9999 -9999 -9999 -9999
55.09 53.52 52.66 61.25 52.62 51.55 54.39 59.63 52.69 59.09 51.26 60.67 59.03 50.83 53.21 55.59 54.90 51.03 54.91 56.02 58.31 54.76 53.13 58.27 59.92 50.20 56.36 53.14 56.29 58.96 57.81 57.10 51.30 51.14 57.29 51.79 58.11 51.90 54.65 55.83 57.69 54.73 54.89 52.09 52.12 56.38 55.73 57.17 57.12 56.52 58.11 51.60 49.05 57.00 53.09 51.91 51.20 53.39 48.69 52.74 51.17 48.29 53.10 50.13 55.96 52.79 52.29 57.07 54.36 54.17 50.20 47.24 51.78 55.82 56.18 54.61 56.06 50.63 50.62 51.30 48.54 55.33 47.92 48.46 46.01 54.89 54.29 52.61 54.57 54.68 50.84 48.41 52.89 53.96 52.86 49.58 47.01 51.23 49.22 46.67 52.32 46.57 51.46 47.49 46.63 50.76 48.26 47.73 46.59 46.88 49.10 47.54 44.39 45.93 47.30 46.19 46.10 44.98 48.26 46.60 46.85 46.96 46.82 45.57 42.73 43.13 43.02 42.01 41.28 43.56 42.65 43.32 40.92 42.86 41.65 41.00 44.13 44.42 42.15 45.10 40.44 39.99 38.73 38.77 41.71 39.46 38.85 38.86 42.39 39.61 41.79 38.33 41.37 39.92 39.22 40.56 37.52 39.64 38.52 35.46 36.98 35.31 36.91 39.03 37.78 39.39 35.03 34.94 39.37 36.09 35.75 33.01 38.16 37.10 35.19 -9999 -9999 -9999 -9999 -9999 -9999 -9999 -9999 -9999 -9999 -9999 -9999 -9999 -9999 -9999 -9999 -9999 -9999 -9999 -9999 -9999 -9999 -9999 -9999 -9999 -9999 -9999 -9999 -9999 -9999 -9999 -9999 -9999 -9999 -9999 -9999 -9999 -9999 -9999 -9999
53.65 52.87 59.17 57.86 51.55 58.36 52.24 59.95 53.50 56.99 54.58 54.68 56.95 53.94 52.12 51.66 54.38 59.08 49.97 53.07 57.42 54.66 53.94 54.14 54.15 54.31 52.50 53.36 54.88 51.27 51.83 50.24 53.15 49.76 48.97 51.94 55.03 57.11 56.82 51.75 52.07 53.53 51.41 54.47 53.88 57.28 57.63 55.82 55.26 53.06 55.96 53.30 50.87 49.39 48.57 52.23 50.57 50.90 47.71 49.96 55.77 48.75 47.86 52.24 53.85 50.11 48.33 55.45 53.76 54.62 53.21 54.75 46.79 47.10 47.74 49.29 48.76 51.34 50.84 46.86 47.07 52.15 46.07 53.33 45.87 52.04 47.82 53.37 47.77 53.24 52.10 50.50 47.47 49.28 47.83 50.47 50.08 46.06 48.55 50.24 49.64 49.70 47.46 50.29 45.08 46.12 49.60 44.23 48.11 47.41 45.14 46.09 45.43 44.09 45.30 43.10 43.44 44.45 43.95 43.70 45.44 43.72 42.06 44.19 42.35 40.77 43.49 41.72 42.62 39.84 40.50 40.14 43.73 44.61 43.68 43.70 39.59 43.38 43.65 39.59 40.64 40.51 39.84 41.73 41.63 39.15 37.45 41.28 37.21 38.28 41.54 36.88 39.49 35.05 35.69 37.85 34.77 38.53 36.52 37.65 35.08 33.40 36.29 36.19 38.25 37.33 36.06 35.41 32.41 33.21 32.74 33.24 34.43 36.38 36.46 -9999 -9999 -9999 -9999 -9999 -9999 -9999 -9999 -9999 -9999 -9999 -9999 -9999 -9999 -9999 -9999 -9999 -9999 -9999 -9999 -9999 -9999 -9999 -9999 -9999 -9999 -9999 -9999 -9999 -9999 -9999 -9999 -9999 -9999 -9999 -9999 -9999 -9999 -9999 -9999
59.47 59.48 58.68 55.04 57.80 56.86 55.03 51.65 56.14 55.56 56.79 52.18 54.59 52.23 54.35 53.64 55.80 55.42 51.41 53.29 59.00 58.75 49.61 52.37 53.36 56.32 55.36 55.27 50.66 51.75 54.78 56.05 54.10 56.57 49.93 55.97 50.24 54.99 52.06 48.29 51.22 54.66 52.66 51.39 51.29 54.75 47.85 56.99 51.80 47.48 47.29 47.66 49.42 56.22 54.66 46.88 48.13 53.72 53.07 47.21 52.26 55.71 56.15 50.24 50.20 53.01 50.56 50.10 54.23 51.12 53.29 54.31 46.19 53.51 52.99 50.31 51.76 49.09 53.58 50.82 46.98 46.46 51.79 52.15 50.43 46.88 47.33 48.62 49.95 48.99 50.18 50.29 50.27 46.32 44.71 46.68 45.99 49.88 49.18 46.48 48.28 47.65 46.17 48.84 48.52 48.60 46.16 46.32 43.72 45.24 43.16 47.37 43.88 41.23 43.23 43.20 42.06 44.30 41.84 45.22 42.93 39.98 42.91 44.69 40.17 42.13 40.29 40.62 41.91 41.57 43.01 38.88 39.11 41.58 37.38 40.95 42.36 39.39 36.54 36.40 39.74 36.67 40.69 40.06 38.54 38.48 37.93 36.25 37.71 39.16 34.51 39.24 39.08 37.44 38.27 37.09 37.66 33.42 36.00 32.54 36.92 36.97 33.90 36.31 31.74 36.76 32.29 36.71 32.90 35.97 31.43 35.13 34.61 29.99 30.35 -9999 -9999 -9999 -9999 -9999 -9999 -9999 -9999 -9999 -9999 -9999 -9999 -9999 -9999 -9999 -9999 -9999 -9999 -9999 -9999 -9999 -9999 -9999 -9999 -9999 -9999 -9999 -9999 -9999 -9999 -9999 -9999 -9999 -9999 -9999 -9999 -9999 -9999 -9999 -9999
50.02 55.30 52.31 56.36 58.67 51.17 56.69 51.91 53.41 53.10 56.99 49.52 54.16 55.20 55.46 57.03 54.58 50.67 52.12 54.11 48.92 56.33 52.06 53.40 48.59 49.07 57.89 51.63 49.05 56.42 50.91 48.45 55.29 50.41 53.43 51.32 53.30 49.38 56.74 54.76 50.11 49.26 54.95 49.27 51.92 52.69 55.76 48.79 51.11 55.22 52.49 50.14 46.76 50.93 48.61 50.04 54.22 47.42 52.22 50.11 48.31 48.15 54.82 47.13 53.38 54.50 54.16 51.34 49.94 45.67 53.72 48.21 52.99 51.17 49.35 52.32 52.29 51.37 46.57 49.34 47.03 50.96 46.20 50.30 45.30 50.73 45.11 49.83 44.86 44.46 46.39 44.32 45.15 49.38 44.29 46.80 47.35 46.14 48.08 45.33 46.47 42.24 44.18 45.64 41.99 46.41 46.76 45.70 45.56 45.65 45.29 44.48 45.45 41.38 40.81 39.85 39.93 43.40 43.44 39.80 38.82 39.92 42.77 39.49 41.22 39.86 42.48 37.86 38.52 40.56 39.42 40.12 37.38 38.71 38.99 37.93 37.13 35.30 38.49 36.89 36.88 39.40 36.75 36.73 37.45 35.96 34.63 35.34 36.61 32.93 34.70 36.32 35.04 32.38 34.27 34.67 32.44 32.02 31.82 35.95 35.87 31.25 32.01 31.36 30.41 35.61 31.43 31.59 31.04 31.76 30.03 30.83 29.57 31.02 29.98 -9999 -9999 -9999 -9999 -9999 -9999 -9999 -9999 -9999 -9999 -9999 -9999 -9999 -9999 -9999 -9999 -9999 -9999 -9999 -9999 -9999 -9999 -9999 -9999 -9999 -9999 -9999 -9999 -9999 -9999 -9999 -9999 -9999 -9999 -9999 -9999 -9999 -9999 -9999 -9999
56.23 49.17 58.09 53.04 55.07 50.65 53.47 48.78 48.96 57.57 55.84 49.99 51.86 52.54 52.04 53.81 50.38 51.58 51.61 56.97 48.03 52.10 52.51 48.82 53.49 50.27 51.17 54.89 56.85 56.39 56.76 52.11 51.96 51.78 54.64 49.50 55.39 48.13 53.82 52.68 51.18 55.57 53.68 51.21 56.01 50.43 54.58 50.61 54.43 47.07 53.41 54.50 53.66 54.70 50.26 53.24 53.15 54.48 55.35 53.76 49.77 54.97 54.39 47.02 53.87 48.48 47.94 48.66 46.81 50.45 52.03 49.20 51.15 45.86 46.57 45.36 48.23 48.36 48.61 48.25 50.08 49.52 49.42 45.32 48.48 48.46 45.21 43.14 47.94 45.27 44.58 47.89 43.38 47.94 46.04 44.74 41.87 46.77 45.64 45.69 44.99 45.06 45.26 43.38 42.18 45.25 39.92 42.92 44.09 39.88 42.40 44.64 42.83 40.07 39.58 40.26 43.57 39.64 42.17 41.98 39.83 41.20 38.05 40.85 37.55 40.43 40.14 36.36 41.01 37.09 35.56 36.38 35.77 36.07 40.17 34.58 34.33 36.96 38.65 37.52 36.06 34.34 37.68 36.69 34.08 34.58 34.75 34.86 36.94 33.05 33.06 37.08 36.66 33.61 33.17 33.39 35.09 35.16 30.82 32.48 34.44 31.30 29.36 29.34 29.00 31.89 33.73 31.71 32.11 31.97 29.24 31.11 26.94 27.08 32.11 -9999 -9999 -9999 -9999 -9999 -9999 -9999 -9999 -9999 -9999 -9999 -9999 -9999 -9999 -9999 -9999 -9999 -9999 -9999 -9999 -9999 -9999 -9999 -9999 -9999 -9999 -9999 -9999 -9999 -9999 -9999 -9999 -9999 -9999 -9999 -9999 -9999 -9999 -9999 -9999
51.95 57.29 51.00 57.38 49.78 51.87 48.43 56.24 51.64 48.05 57.71 52.57 50.66 54.13 51.02 50.85 51.27 54.29 51.63 56.29 56.53 49.42 48.46 54.14 54.18 48.57 51.20 56.44 52.86 55.58 52.88 49.49 51.56 47.18 55.88 55.01 53.49 54.64 50.81 55.07 46.74 53.80 46.67 48.11 50.79 49.84 53.31 45.92 45.80 55.33 52.09 48.71 51.49 50.32 47.58 46.58 50.74 48.76 51.38 51.74 50.53 51.32 49.32 46.51 46.24 48.56 49.50 45.38 48.63 46.18 50.29 49.20 46.37 46.94 46.69 44.76 49.22 44.85 46.22 45.31 47.20 45.54 46.58 43.38 46.59 42.13 43.82 42.43 46.00 44.02 46.30 42.48 43.90 46.27 41.97 42.27 45.98 44.81 43.55 40.65 40.62 39.31 43.02 39.54 39.92 40.80 42.52 41.38 42.86 40.26 40.65 38.27 38.40 42.47 40.32 40.48 39.12 38.96 41.25 40.16 38.57 36.48 38.25 36.23 37.34 40.02 37.59 37.94 37.89 38.70 34.32 38.89 38.89 37.00 34.89 38.28 37.06 35.56 32.78 35.27 35.31 35.93 36.51 34.63 34.01 32.44 32.33 33.73 34.82 35.17 31.30 30.79 29.85 32.20 30.79 34.31 29.78 34.20 30.77 33.93 30.64 30.84 30.29 30.11 29.77 31.74 28.31 30.46 30.39 29.61 28.98 31.66 25.65 29.04 28.07 29.13 -9999 -9999 -9999 -9999 -9999 -9999 -9999 -9999 -9999 -9999 -9999 -9999 -9999 -9999 -9999 -9999 -9999 -9999 -9999 -9999 -9999 -9999 -9999 -9999 -9999 -9999 -9999 -9999 -9999 -9999 -9999 -9999 -9999 -9999 -9999 -9999 -9999 -9999 -9999
54.15 48.23 57.30 57.12 56.14 49.46 56.08 55.41 54.85 56.20 54.35 47.59 51.71 51.91 55.86 51.15 48.71 54.46 47.66 52.10 56.74 55.51 48.05 52.81 48.80 49.22 48.50 49.87 52.85 50.75 47.02 47.39 52.85 47.11 52.85 53.63 53.62 52.19 50.63 46.19 51.63 53.61 50.74 46.42 51.03 50.68 49.88 51.71 52.59 52.41 48.71 48.26 49.79 47.01 46.44 48.33 49.69 46.05 45.33 46.93 50.34 45.11 47.79 47.69 47.20 49.16 49.56 49.66 49.05 48.98 48.88 46.22 47.67 47.16 46.24 42.48 43.29 45.10 43.95 43.02 43.63 42.17 43.03 45.93 43.95 44.41 41.15 41.77 43.97 41.43 41.27 42.64 41.02 43.93 39.44 41.02 44.36 41.96 40.50 39.04 41.73 43.16 39.50 42.55 40.27 37.12 37.25 40.38 40.10 36.85 38.78 38.84 36.79 35.72 38.27 37.69 38.22 38.46 37.77 37.60 35.27 38.72 38.52 34.61 36.80 39.15 37.59 38.11 35.16 37.59 34.06 35.50 35.56 32.81 35.80 34.09 36.75 31.05 31.74 32.46 32.08 31.15 31.61 34.07 32.72 35.41 32.83 30.42 34.50 32.03 29.02 32.32 32.25 31.32 28.28 33.35 29.60 27.72 27.81 27.10 32.26 26.93 28.70 28.59 27.41 29.47 29.76 26.38 28.33 26.75 25.89 27.83 25.40 26.06 29.14 25.36 -9999 -9999 -9999 -9999 -9999 -9999 -9999 -9999 -9999 -9999 -9999 -9999 -9999 -9999 -9999 -9999 -9999 -9999 -9999 -9999 -9999 -9999 -9999 -9999 -9999 -9999 -9999 -9999 -9999 -9999 -9999 -9999 -9999 -9999 -9999 -9999 -9999 -9999 -9999
48.44 53.01 57.22 53.16 53.19 48.34 55.39 51.76 48.39 53.70 50.98 54.42 49.45 50.21 52.36 48.92 49.93 49.37 49.74 55.43 50.93 54.72 49.52 53.02 46.19 48.99 49.23 51.07 50.79 47.25 47.99 46.06 48.02 45.45 52.04 46.29 50.28 47.29 50.38 49.35 48.86 49.40 50.46 52.32 51.15 48.47 49.80 50.86 49.84 47.66 48.63 48.79 49.15 47.79 45.79 48.19 46.24 49.72 44.61 47.39 47.36 48.13 48.62 48.87 47.80 47.83 46.48 45.08 45.11 44.01 42.58 43.42 46.36 43.32 45.02 45.35 42.72 43.28 42.07 43.10 42.54 40.41 42.73 39.91 44.96 41.91 44.99 43.03 43.73 41.07 41.26 41.29 43.75 39.23 41.19 41.83 39.98 38.20 39.74 39.14 37.35 38.78 40.86 40.43 37.32 40.58 36.61 35.24 36.95 35.48 38.62 36.81 39.13 38.40 39.75 39.52 37.69 38.11 35.40 38.40 37.95 34.08 33.05 36.27 32.36 32.57 34.00 36.55 33.13 33.08 32.07 32.33 32.27 33.65 33.72 31.49 33.49 33.25 33.13 33.22 32.48 34.35 30.99 34.16 29.22 32.26 29.08 29.61 30.13 29.77 30.64 27.33 29.91 28.35 26.77 31.59 30.55 31.26 27.50 28.66 28.67 29.00 26.10 25.36 24.60 29.63 29.21 27.21 24.27 25.43 26.81 -9999 -9999 -9999 -9999 -9999 -9999 -9999 -9999 -9999 -9999 -9999 -9999 -9999 -9999 -9999 -9999 -9999 -9999 -9999 -9999 -9999 -9999 -9999 -9999 -9999 -9999 -9999 -9999 -9999 -9999 -9999 -9999 -9999 -9999 -9999 -9999 -9999 -9999 -9999 -9999 -9999 -9999 -9999 -9999
55.25 53.63 50.30 49.68 50.36 52.22 54.84 51.43 47.28 51.02 53.67 48.38 46.81 49.83 48.55 50.31 52.35 53.39 53.34 54.90 50.08 51.92 51.20 49.71 47.61 53.52 49.41 50.23 50.37 46.62 49.25 52.21 50.35 52.11 47.55 47.78 49.50 46.17 47.97 51.13 49.08 48.80 47.36 46.68 46.32 48.32 46.25 44.77 44.31 48.91 45.17 49.39 45.48 45.34 43.41 44.33 44.25 45.66 44.51 46.60 45.01 42.01 46.76 46.54 42.74 41.30 41.85 43.87 42.04 43.87 44.47 42.63 45.75 40.91 40.95 40.69 43.78 40.88 42.14 41.09 42.77 38.67 40.62 42.40 38.70 38.30 41.35 39.93 37.51 37.26 38.60 38.36 41.61 37.12 38.08 40.39 39.24 40.67 36.06 37.26 39.77 35.79 36.42 35.08 37.49 34.97 39.63 35.72 35.76 34.77 36.75 38.26 37.26 38.20 33.91 35.79 37.93 34.62 34.60 33.48 32.09 33.49 32.24 34.46 36.46 31.32 31.20 30.18 29.95 29.99 32.14 33.18 29.95 29.25 32.70 32.15 31.12 29.75 32.78 28.34 29.63 31.81 28.27 30.35 29.74 30.25 30.50 28.01 29.20 29.52 30.02 28.49 30.06 26.12 25.37 28.87 29.29 29.71 24.75 28.66 25.62 27.41 25.24 27.95 -9999 -9999 -9999 -9999 -9999 -9999 -9999 -9999 -9999 -9999 -9999 -9999 -9999 -9999 -9999 -9999 -9999 -9999 -9999 -9999 -9999 -9999 -9999 -9999 -9999 -9999 -9999 -9999 -9999 -9999 -9999 -9999 -9999 -9999 -9999 -9999 -9999 -9999 -9999 -9999 -9999 -9999 -9999 -9999 -9999 -9999 -9999 -9999 -9999 -9999 -9999
48.11 53.08 54.07 46.43 48.73 49.67 53.80 48.33 50.58 46.24 48.11 47.35 49.81 48.30 48.37 46.38 50.97 51.47 47.68 50.43 54.12 49.76 48.39 52.10 50.83 49.84 49.52 51.19 51.19 45.90 49.45 48.31 45.62 49.01 45.80 46.19 46.53 47.56 45.79 47.73 47.31 43.99 48.84 46.88 47.10 47.53 43.83 43.68 43.63 42.86 48.00 47.13 46.51 44.57 44.97 46.62 45.55 41.39 43.15 41.88 44.72 41.79 42.38 40.82 41.57 40.71 40.16 40.84 40.54 40.57 40.29 42.08 40.76 44.03 40.33 40.12 41.58 39.94 43.11 41.53 38.76 41.56 42.04 42.59 38.11 38.12 39.31 36.31 38.52 36.43 40.85 35.40 35.56 39.12 38.67 38.97 38.53 34.55 39.06 34.81 37.15 34.85 38.15 33.12 34.37 36.13 38.54 37.26 35.90 37.96 31.87 36.31 31.90 36.52 34.01 32.31 35.77 36.01 31.70 31.19 30.16 31.49 29.64 35.29 34.70 34.18 34.38 29.91 28.70 30.38 29.04 30.57 33.15 28.17 31.42 28.40 28.26 29.36 28.39 27.22 27.28 29.66 29.58 27.63 27.88 29.52 30.38 28.79 30.31 27.92 24.42 25.00 29.67 25.74 27.77 24.64 -9999 -9999 -9999 -9999 -9999 -9999 -9999 -9999 -9999 -9999 -9999 -9999 -9999 -9999 -9999 -9999 -9999 -9999 -9999 -9999 -9999 -9999 -9999 -9999 -9999 -9999 -9999 -9999 -9999 -9999 -9999 -9999 -9999 -9999 -9999 -9999 -9999 -9999 -9999 -9999 -9999 -9999 -9999 -9999 -9999 -9999 -9999 -9999 -9999 -9999 -9999 -9999 -9999 -9999 -9999 -9999 -9999 -9999 -9999
54.14 53.99 51.59 55.01 50.25 54.23 55.31 49.88 53.72 46.12 54.59 50.90 48.70 50.66 50.94 46.71 49.60 51.13 47.13 48.99 47.50 50.51 46.80 48.60 47.50 48.53 46.81 46.80 45.93 44.97 45.87 46.63 48.42 49.00 49.18 45.97 46.66 46.21 47.70 44.14 43.34 48.39 42.33 42.44 41.99 46.33 47.40 44.44 45.48 41.15 46.46 41.41 45.85 41.97 43.94 40.24 41.96 41.46 42.44 40.67 41.81 43.33 42.12 43.82 38.98 42.37 41.92 43.25 42.12 41.89 41.47 40.92 40.70 38.32 40.82 39.30 38.65 40.40 40.23 39.01 38.17 35.84 38.42 37.95 38.10 37.38 40.18 38.68 34.69 39.21 37.69 36.32 35.08 37.24 37.29 35.93 38.22 36.11 36.82 38.33 36.31 32.51 33.50 33.71 33.55 34.23 36.96 35.99 33.42 31.79 36.25 31.08 31.70 29.91 30.49 34.80 30.25 32.05 31.69 30.26 33.40 33.79 32.23 28.12 28.47 33.22 32.38 31.63 32.65 28.42 26.73 29.59 26.75 26.35 28.39 29.41 29.36 29.49 27.29 30.37 30.35 26.27 25.17 26.75 29.11 25.35 25.75 25.28 23.86 -9999 -9999 -9999 -9999 -9999 -9999 -9999 -9999 -9999 -9999 -9999 -9999 -9999 -9999 -9999 -9999 -9999 -9999 -9999 -9999 -9999 -9999 -9999 -9999 -9999 -9999 -9999 -9999 -9999 -9999 -9999 -9999 -9999 -9999 -9999 -9999 -9999 -9999 -9999 -9999 -9999 -9999 -9999 -9999 -9999 -9999 -9999 -9999 -9999 -9999 -9999 -9999 -9999 -9999 -9999 -9999 -9999 -9999 -9999 -9999 -9999 -9999 -9999 -9999 -9999 -9999
50.67 54.57 48.00 49.35 46.88 46.69 50.17 49.24 46.81 48.31 46.34 49.16 47.43 47.02 50.79 45.80 46.03 49.69 50.13 48.15 50.01 44.96 47.49 44.45 48.53 46.62 47.16 48.10 44.87 45.44 46.52 44.11 43.66 46.88 42.55 45.80 42.32 46.29 45.48 46.19 45.29 43.24 43.60 43.75 44.54 43.12 45.86 41.50 42.20 39.70 45.33 42.15 43.72 43.44 44.58 40.24 43.14 43.26 43.75 40.53 41.61 39.34 40.32 37.44 41.79 39.08 41.76 37.28 37.03 38.63 36.72 40.44 38.42 38.91 40.54 40.32 35.25 39.63 38.50 35.60 35.28 40.09 39.91 39.24 38.55 36.41 38.95 38.97 38.75 36.60 33.86 35.76 32.97 36.01 33.49 35.87 34.21 32.75 36.62 33.11 32.70 33.39 35.48 31.18 31.14 30.25 34.60 30.10 30.55 34.98 29.53 30.73 30.93 31.90 29.57 34.03 29.24 27.79 31.32 30.47 27.46 31.90 30.77 31.17 29.66 29.20 31.62 25.79 27.00 29.79 26.93 29.57 26.60 26.53 29.00 25.55 28.70 27.11 26.28 25.03 24.65 28.80 23.90 27.80 -9999 -9999 -9999 -9999 -9999 -9999 -9999 -9999 -9999 -9999 -9999 -9999 -9999 -9999 -9999 -9999 -9999 -9999 -9999 -9999 -9999 -9999 -9999 -9999 -9999 -9999 -9999 -9999 -9999 -9999 -9999 -9999 -9999 -9999 -9999 -9999 -9999 -9999 -9999 -9999 -9999 -9999 -9999 -9999 -9999 -9999 -9999 -9999 -9999 -9999 -9999 -9999 -9999 -9999 -9999 -9999 -9999 -9999 -9999 -9999 -9999 -9999 -9999 -9999 -9999 -9999 -9999 -9999 -9999 -9999 -9999
49.83 46.56 46.59 46.82 46.26 48.87 46.71 47.31 49.27 45.08 50.01 48.33 48.64 44.16 45.82 47.38 44.22 44.58 44.27 45.81 48.01 47.24 46.43 43.61 43.87 43.60 44.02 46.05 44.15 44.68 41.85 44.44 45.86 45.94 43.82 45.66 44.05 42.63 45.92 41.05 39.79 40.13 40.33 39.35 40.97 43.13 43.47 43.43 39.26 44.14 40.12 38.47 42.88 43.15 41.00 42.83 41.19 42.07 40.85 40.13 39.51 40.54 38.00 41.64 36.98 41.06 35.86 38.00 40.26 38.74 39.61 34.53 36.38 36.18 35.15 39.68 37.55 37.17 39.19 33.60 33.05 37.44 34.76 34.52 32.31 35.45 35.83 37.08 32.95 37.09 36.27 35.20 32.24 33.98 34.91 34.39 32.74 33.89 35.33 31.33 34.38 32.36 31.16 31.25 32.24 30.18 32.91 29.75 29.21 31.28 33.13 29.78 27.85 27.36 31.36 31.38 31.13 28.22 31.19 28.93 31.46 28.40 27.42 28.93 30.03 27.75 25.58 25.50 27.24 27.88 26.41 23.76 27.45 26.16 23.84 26.96 24.85 24.53 23.07 22.59 22.18 23.01 27.16 27.13 -9999 -9999 -9999 -9999 -9999 -9999 -9999 -9999 -9999 -9999 -9999 -9999 -9999 -9999 -9999 -9999 -9999 -9999 -9999 -9999 -9999 -9999 -9999 -9999 -9999 -9999 -9999 -9999 -9999 -9999 -9999 -9999 -9999 -9999 -9999 -9999 -9999 -9999 -9999 -9999 -9999 -9999 -9999 -9999 -9999 -9999 -9999 -9999 -9999 -9999 -9999 -9999 -9999 -9999 -9999 -9999 -9999 -9999 -9999 -9999 -9999 -9999 -9999 -9999 -9999 -9999 -9999 -9999 -9999 -9999 -9999
49.17 44.90 50.10 50.02 44.13 45.08 49.38 48.47 48.55 44.56 43.34 44.90 47.17 48.43 42.53 44.44 43.10 46.10 45.96 44.64 44.44 43.26 41.19 46.85 44.46 45.86 46.44 43.20 45.14 43.92 44.54 43.11 45.11 43.73 44.29 43.64 40.32 43.09 40.62 38.76 42.59 38.18 39.28 43.03 42.55 39.57 42.23 38.38 37.04 39.33 41.80 37.48 37.34 42.06 39.52 40.63 41.44 40.81 40.38 35.82 39.02 37.40 39.47 34.88 34.77 37.55 36.84 37.03 37.67 33.88 35.39 37.71 34.98 33.34 33.27 37.72 36.96 37.38 33.86 37.35 36.67 33.94 34.96 33.64 31.55 32.06 36.43 34.52 33.26 30.34 31.18 32.48 33.19 33.05 31.52 34.45 30.98 29.11 31.77 33.80 29.85 33.36 30.13 31.14 31.83 28.21 27.31 27.24 30.61 29.91 30.84 28.85 25.94 28.26 27.51 30.16 27.71 29.71 26.78 27.04 25.02 28.18 24.31 26.92 24.80 27.56 28.77 24.59 24.42 23.10 26.76 24.87 27.11 21.96 24.71 21.76 23.49 24.70 26.16 23.60 22.20 23.21 20.28 25.37 -9999 -9999 -9999 -9999 -9999 -9999 -9999 -9999 -9999 -9999 -9999 -9999 -9999 -9999 -9999 -9999 -9999 -9999 -9999 -9999 -9999 -9999 -9999 -9999 -9999 -9999 -9999 -9999 -9999 -9999 -9999 -9999 -9999 -9999 -9999 -9999 -9999 -9999 -9999 -9999 -9999 -9999 -9999 -9999 -9999 -9999 -9999 -9999 -9999 -9999 -9999 -9999 -9999 -9999 -9999 -9999 -9999 -9999 -9999 -9999 -9999 -9999 -9999 -9999 -9999 -9999 -9999 -9999 -9999 -9999 -9999
47.66 46.47 45.57 44.11 45.21 46.57 47.45 47.34 47.19 46.06 45.08 45.57 46.05 43.74 41.26 46.75 44.72 41.47 46.32 43.79 40.71 42.73 41.03 43.13 44.07 41.71 41.82 39.86 41.16 44.58 41.37 40.11 43.25 43.41 41.70 41.87 41.44 40.55 38.19 40.17 40.88 38.17 39.82 37.39 41.89 38.11 37.37 39.53 41.22 38.21 35.76 35.92 40.24 40.51 39.24 34.85 38.30 39.64 36.73 37.81 35.24 34.01 34.82 34.82 38.67 38.66 35.69 33.57 33.27 37.76 32.97 31.94 35.56 31.80 32.75 36.17 36.06 34.09 31.52 31.90 31.61 35.29 32.00 34.45 30.07 34.50 34.15 33.98 29.05 31.10 30.17 33.40 32.40 31.87 32.34 31.73 27.52 30.33 30.77 30.71 29.02 31.56 30.31 30.37 26.87 29.76 29.95 26.05 25.81 26.75 28.25 29.81 24.39 28.25 29.74 28.56 26.00 25.92 26.02 24.56 27.18 24.57 24.52 22.33 26.83 22.01 22.93 26.71 26.81 25.49 21.39 24.12 22.04 22.43 21.19 24.89 20.40 22.27 21.27 25.06 22.72 22.69 21.64 22.45 -9999 -9999 -9999 -9999 -9999 -9999 -9999 -9999 -9999 -9999 -9999 -9999 -9999 -9999 -9999 -9999 -9999 -9999 -9999 -9999 -9999 -9999 -9999 -9999 -9999 -9999 -9999 -9999 -9999 -9999 -9999 -9999 -9999 -9999 -9999 -9999 -9999 -9999 -9999 -9999 -9999 -9999 -9999 -9999 -9999 -9999 -9999 -9999 -9999 -9999 -9999 -9999 -9999 -9999 -9999 -9999 -9999 -9999 -9999 -9999 -9999 -9999 -9999 -9999 -9999 -9999 -9999 -9999 -9999 -9999 -9999
43.79 45.74 45.92 46.08 46.09 41.69 45.87 46.52 41.69 44.65 42.44 41.17 40.84 43.63 41.51 42.66 44.97 41.87 44.73 41.81 40.34 39.60 44.08 38.20 38.21 38.14 42.50 39.11 41.78 40.84 41.51 38.77 40.73 39.24 42.21 36.41 41.86 39.40 40.73 40.12 37.93 38.91 39.35 38.97 36.88 36.85 35.40 37.11 38.96 34.00 37.61 35.13 39.26 33.43 35.70 38.76 35.63 33.35 38.24 37.17 34.14 36.38 33.13 36.95 36.53 36.70 33.91 33.07 30.75 32.97 34.79 31.72 35.91 32.65 35.58 35.49 32.57 34.05 34.71 33.39 33.71 30.42 32.74 31.63 33.19 28.71 28.68 28.75 30.19 28.70 30.29 32.02 29.50 27.44 28.95 31.88 27.60 26.41 29.21 29.00 29.44 28.56 30.31 24.74 27.53 26.56 26.00 29.76 24.33 29.10 25.21 25.45 26.23 26.87 24.69 26.73 22.17 22.15 22.76 23.07 22.91 26.72 26.54 25.32 21.59 23.30 21.59 25.89 21.77 19.82 21.02 21.24 20.78 21.39 21.32 22.39 21.59 20.06 22.64 21.89 22.64 17.89 22.75 17.45 -9999 -9999 -9999 -9999 -9999 -9999 -9999 -9999 -9999 -9999 -9999 -9999 -9999 -9999 -9999 -9999 -9999 -9999 -9999 -9999 -9999 -9999 -9999 -9999 -9999 -9999 -9999 -9999 -9999 -9999 -9999 -9999 -9999 -9999 -9999 -9999 -9999 -9999 -9999 -9999 -9999 -9999 -9999 -9999 -9999 -9999 -9999 -9999 -9999 -9999 -9999 -9999 -9999 -9999 -9999 -9999 -9999 -9999 -9999 -9999 -9999 -9999 -9999 -9999 -9999 -9999 -9999 -9999 -9999 -9999 -9999
